ply
format ascii 1.0
comment written by Dennis Cheung
element vertex 323
property float32 x
property float32 y
property float32 z
property uchar red
property uchar green
property uchar blue
end_header
2.9113998891660526 -14.203455643964537 6.167492125119506 255 0 0
2.1124345959989053 -16.582973718847178 3.1377378826301983 255 0 0
2.077858782334091 -16.114878180497342 2.3877040616170278 255 0 0
4.209755785808344 -10.588107377182792 7.12155199999878 255 0 0
1.9453006747349268 -16.254018381021364 2.078559508336368 255 0 0
2.874505208996492 -11.513539563046232 5.327211723055721 255 0 0
2.100573581996632 -14.58210541949245 1.7807983978202095 255 0 0
-0.5687576671011497 -2.9474464689555884 13.111387592286796 255 0 0
2.1842934461230494 -11.829226783856116 2.77043916475042 255 0 0
-1.2178132675661129 -4.336905175654215 11.782325799721699 255 0 0
-0.6902374732647567 -3.203186117238312 12.694421504956418 255 0 0
-0.6460883723023095 -3.015700547922111 12.798703230337912 255 0 0
-0.5044277347030753 -2.5864910885010195 12.875931644193813 255 0 0
13.975003675121837 -2.317312416315756 -1.3001864437130424 255 0 0
33.632140755179535 -4.887037510970505 -2.5553527781453886 255 0 0
-0.760630779405689 -3.4170828755567046 10.931444254624296 255 0 0
1.8239446367204681 -10.610206752812207 2.168383011307248 255 0 0
0.4374883007121615 -0.2550933303962048 13.621195956982303 255 0 0
0.3177997357327032 -0.27188298092951296 13.159705210441532 255 0 0
-1.8095672409239827 -5.424306226044059 8.61569346777026 255 0 0
0.23534062178124232 -0.29026475534561963 12.858465239290686 255 0 0
-1.1246244713505948 -3.564059793636545 9.932399891203433 255 0 0
-0.7122904592828156 -2.480345787512653 10.756745991000912 255 0 0
0.35653676926989064 0.42699227814591517 13.336372763519714 255 0 0
-1.135895686223813 -4.2649690275344705 9.058519664178132 255 0 0
-0.896020335444553 -17.828753786265622 -5.385675029037242 255 0 0
-0.6815057838133372 -17.224686943339346 -4.878955222037348 255 0 0
-1.191698907423619 -3.362489839417396 9.789539712060527 255 0 0
1.9921946219111322 -9.094712320736582 2.1767896438358956 255 0 0
-0.05917682498784573 -0.730072070775664 11.810620421060054 255 0 0
-1.2947308283876307 -3.5639974246290715 9.336768282739532 255 0 0
0.14444351460291052 0.023742464753939284 12.439192364299466 255 0 0
-0.023352152085922895 -0.33842922840955414 12.068593223178835 255 0 0
-0.6780598799897317 -1.9921549530686005 10.59434434831554 255 0 0
1.344949560649689 -10.378238192780891 0.826775878723189 255 0 0
0.4081040497796117 1.1166620890610186 13.253812078301449 255 0 0
-0.07963778284996502 -0.48282308669121066 11.62942259855595 255 0 0
-1.234306203348286 -2.966586860059373 9.522732361821161 255 0 0
-0.7732632533909081 -1.9757878778140379 10.330490387680847 255 0 0
-0.9769059994911705 -2.361280045035884 10.01149634303026 255 0 0
0.15880130422319816 0.3102172210809308 12.282854957177944 255 0 0
0.20482008345843658 0.4585874212970799 12.383299081878835 255 0 0
-1.107633655920214 -2.6546579565813877 9.671383663594098 255 0 0
1.8433672964655654 -8.579367992537904 1.9270842672470412 255 0 0
-1.2002032306631183 -2.5939934128041355 9.458870210888158 255 0 0
-1.7921472692004534 -3.965913586414548 8.224554870378288 255 0 0
-1.7921472692004534 -3.965913586414548 8.224554870378288 255 0 0
1.578859719814059 -9.200728547384077 1.1173832656267482 255 0 0
-1.97709039521134 -4.475097620228674 7.701106195639473 255 0 0
-0.9961581875738053 -1.843131915121592 9.931613188320231 255 0 0
-1.6702471727267498 -3.3808352908906 8.60808388328823 255 0 0
-1.930874117198578 -4.215862145258362 7.722583026196408 255 0 0
0.11037743619345151 0.670306213069997 11.934273418895957 255 0 0
-1.6909662637250436 -3.475607815539319 8.33008705534278 255 0 0
-1.6909662637250436 -3.475607815539319 8.33008705534278 255 0 0
-0.4881723643149381 -15.251719106041856 -4.632927996505675 255 0 0
-1.8552348863551273 -3.930008823336547 7.896182039421362 255 0 0
0.08056433642829022 0.7312377302590792 11.84268695258268 255 0 0
-1.5690393519773822 -2.7864413813056355 8.81066396558642 255 0 0
-1.0598173202192884 -1.7605524260926264 9.62937738574057 255 0 0
0.3645970595446723 1.3088255104780564 12.192632532818877 255 0 0
0.35052532707505896 1.4121417698215835 12.258042480383105 255 0 0
-0.11712517039716933 0.39284508301274607 11.37633847222554 255 0 0
1.4312174769533028 -9.186223720561523 0.5175819256843792 255 0 0
1.4312174769533028 -9.186223720561523 0.5175819256843792 255 0 0
-1.5808939694429494 -2.671633986385837 8.725908091889695 255 0 0
-1.0288205179916026 -1.5234325022157347 9.68734000988523 255 0 0
-0.7571664963341509 -0.9844695796876527 10.12533655303346 255 0 0
-0.975510073412415 -1.3715343197414793 9.795112682691713 255 0 0
-0.5559976697356354 -15.216599343212605 -5.0518133282532105 255 0 0
1.7002963366704142 -8.2982246725552 1.179459805622232 255 0 0
0.11694786493479159 1.0993788333881367 11.790232239771619 255 0 0
1.3105799567509955 -9.41844592804003 0.15247797530219953 255 0 0
-0.08041509070917285 0.7310587143538011 11.456588411567386 255 0 0
-0.46467022895955856 -0.03667902670983516 10.75732398319316 255 0 0
-0.8705179910152658 -1.0895967221870637 9.826405221309692 255 0 0
-0.8705179910152658 -1.0895967221870637 9.826405221309692 255 0 0
-1.8180405901268937 -3.324510904668467 7.80785099071561 255 0 0
-0.19584227087517064 0.4334118960138232 10.976330966203088 255 0 0
1.9418329941067747 -7.408951073061492 1.6599545879271274 255 0 0
-0.704756673833962 -0.4020468105681265 10.18082226743588 255 0 0
1.7763308589820213 -7.780494801111924 1.1928141321096426 255 0 0
-0.7441066687291734 -0.558276946736112 9.936311491805352 255 0 0
-1.0572750602385779 -1.1252115350455578 9.415473711216288 255 0 0
-0.15975744317852575 0.95647810007327 11.180751950539689 255 0 0
-1.4533561583126833 -1.913825301951545 8.717288391105972 255 0 0
-2.0031901428005385 -3.2054258124562858 7.497235576714064 255 0 0
-1.6239304849760507 -2.200914004492587 8.363094299759275 255 0 0
-0.5792493877456009 -14.65593533877857 -5.229707646265021 255 0 0
-1.9158767321173062 -3.4912411474416953 7.075925768374687 255 0 0
-1.5901956452075499 -2.0163692682622574 8.454838051154649 255 0 0
-0.44735781359416166 0.575636123098467 10.621897157993672 255 0 0
-0.06757906330842242 1.314947913315457 11.08641885648092 255 0 0
-0.666821905962198 0.07885211243851634 9.958951942877157 255 0 0
-1.6322841212927768 -1.9302653401855658 8.259947060079831 255 0 0
-1.8374688248149458 -2.6398556248325975 7.562618420126547 255 0 0
-1.6948916860279295 -2.131796672528403 7.949800034985313 255 0 0
-0.18891897782369602 1.2291443646300932 10.67939547662976 255 0 0
1.4261935660568117 -8.243785346140223 -0.08306105322764112 255 0 0
-0.6692552611156737 -14.433209309876005 -5.679510887697454 255 0 0
-1.9607554663333862 -2.7637536284002926 7.157649682620282 255 0 0
-0.9084778316919863 -0.39811039597240366 9.167990637325689 255 0 0
-0.45598749125457894 0.8460544736856798 10.183926156793168 255 0 0
-0.45598749125457894 0.8460544736856798 10.183926156793168 255 0 0
-0.05645221327048507 1.7448710102901273 10.941576839092999 255 0 0
-0.05645221327048507 1.7448710102901273 10.941576839092999 255 0 0
-1.607887201124226 -1.644595874943215 8.07391583603791 255 0 0
-0.866384219293118 -0.05967632727725463 9.366309230639406 255 0 0
1.2658620502504323 -8.446808020116002 -0.530485901852759 255 0 0
-1.6348338263656503 -1.6363980668840328 7.9970066954315016 255 0 0
-0.03765326903885469 1.8510564575984756 10.688899758174266 255 0 0
1.8883183173838747 -6.464578219378192 0.925806149736397 255 0 0
-0.05850551194683018 1.8010005993332052 10.549936727247838 255 0 0
-1.5691171759290792 -1.5080008784337777 7.746787742625062 255 0 0
-1.4738318739204068 -1.1397864253254029 8.021315092029369 255 0 0
1.7391965302057304 -6.852118631758385 0.48748859236652564 255 0 0
-1.8585808784823366 -2.971218992293045 6.219421135031428 255 0 0
-1.0295193791408186 -15.021560962899507 -6.8918453461495135 255 0 0
-1.623265839527478 -1.6674218898551951 7.392738060422005 255 0 0
-0.004940812595138117 2.0614508108797547 10.52791629101713 255 0 0
-0.7279855182295448 0.44773938798067925 9.072511316711147 255 0 0
-0.7690551753807854 0.24003956992116138 8.862525107384666 255 0 0
-0.14203958753459964 1.7803771976293126 10.080376684988178 255 0 0
-1.5088126457967928 -1.264097684070012 7.453491310753876 255 0 0
-1.7783485405575032 -2.5381013241144834 6.221674540762656 255 0 0
-0.17759631289930816 1.58837324191549 9.792965113020482 255 0 0
0.5139241909216377 3.2446109810740658 11.186756107289296 255 0 0
-0.16125824501158512 1.6473059703445552 9.798983741770657 255 0 0
-0.8902124285217281 -14.3068552628786 -6.689322168506829 255 0 0
-0.8705874107137267 0.12283869684456802 8.441459322764493 255 0 0
-0.6682689777799395 -13.61825515902231 -6.139705900071215 255 0 0
-0.9314893673271636 0.0045654945056034495 8.31407879238614 255 0 0
-0.9648757533121783 -0.1698046619456895 8.136738012834963 255 0 0
-0.13649725003076488 1.7926121204675642 9.722290356015206 255 0 0
0.2702108746873286 3.0138213968992082 10.681467136305315 255 0 0
0.3607089495383664 3.170281169846645 10.773772896810408 255 0 0
0.07413296168635723 2.547095373848397 10.224486804179039 255 0 0
-0.47518730526896086 1.1754103351352703 8.963679029156443 255 0 0
-0.47518730526896086 1.1754103351352703 8.963679029156443 255 0 0
-0.7405379400251446 -13.580740270523258 -6.474780776590998 255 0 0
1.3673796037362744 -7.260434417264675 -0.8140198661938227 255 0 0
-0.5081572529663011 1.0776175965684056 8.754888356536128 255 0 0
-1.124747256209277 -14.660225825153601 -7.5638677622471 255 0 0
0.2326215155767409 3.219326741786085 10.482715091745261 255 0 0
-0.11697439947137497 2.0290472229401164 9.355535905717929 255 0 0
-0.9352474019742257 -0.06419291602609149 7.505644377918908 255 0 0
-1.2564964359815012 -14.852502716159588 -7.9507942935267435 255 0 0
-0.6958986807161407 0.5192150328193059 7.981813666694335 255 0 0
-1.169674802927795 -0.5872189680326605 7.015420906496188 255 0 0
-1.169674802927795 -0.5872189680326605 7.015420906496188 255 0 0
0.05630165526165444 2.759336144225719 9.91998630548078 255 0 0
0.47614906976173393 4.194144072274973 11.03527993068615 255 0 0
0.14759066802084977 3.0745112829662484 9.965764583491316 255 0 0
-0.9211052087858621 -13.607419012549938 -7.249766667785398 255 0 0
-0.18842605912028335 2.138287270301546 8.955385394229278 255 0 0
-0.6867824306226691 0.9763274721054548 7.949367780559979 255 0 0
0.4307074215669588 4.3611887097516355 10.685701015697653 255 0 0
0.1408056379030621 3.1661162976433768 9.539701803333605 255 0 0
-0.9530509498158297 -13.446607902070978 -7.571796997745729 255 0 0
0.43650183973407275 4.528947478530343 10.66228740519322 255 0 0
-0.8134406602489085 1.3048049610875407 7.818842265079485 255 0 0
0.2779269556491439 3.9031745586596456 10.008998055817727 255 0 0
1.357804306213042 -6.319395530014566 -1.4280667087488765 255 0 0
2.325376552300469 -5.704973141438713 -1.9224185284878899 255 0 0
1.1887191487023634 -6.511095077107668 -1.8871707818604957 255 0 0
-0.8145041374998263 -12.609449505497837 -7.385576648594738 255 0 0
0.45657541021437015 4.920762638204755 10.248149017133407 255 0 0
0.5455269660201914 5.008635284681582 10.355474073842394 255 0 0
-0.5836736047123426 0.4203917521948148 5.3504944640650285 255 0 0
1.3202746222856407 -5.3660945742331565 -2.137741012492773 255 0 0
1.1773276176144964 -5.548195580813744 -2.546749633832431 255 0 0
-0.5760400424162913 -11.118850030363506 -7.716456066270359 255 0 0
22.962784637159 5.812464098701155 1.3024788168091324 255 0 0
-11.618992737913095 -1.0661349059954406 6.851560505611763 255 0 0
-0.607802061196783 -10.561126660052302 -7.674361555502529 255 0 0
-0.8404231726511573 -11.4173883636762 -8.631000555385002 255 0 0
1.3133368423114027 -4.408447619591438 -2.7087819233237367 255 0 0
-0.6284119072135417 -10.448101147529528 -8.17460329386645 255 0 0
1.617100701920283 -3.554261596198214 -1.9894217625425674 255 0 0
2.432868634457764 -1.0952605195075849 0.22098681858807737 255 0 0
1.7421265467965177 -2.968740641269768 -1.7089758588745618 255 0 0
1.4309200378762883 -3.812346377137158 -2.4495557941502137 255 0 0
1.1710007399888163 -4.6014477739059165 -3.1943263214434414 255 0 0
-0.2738101994051288 4.9509488723568085 7.495494838036489 255 0 0
-0.5645748323817594 -9.691641665781534 -8.199177011843847 255 0 0
2.557841766880566 -0.14960769141751368 -0.10827102339203508 255 0 0
-0.7670979665627736 5.476409048801047 5.935049656773364 255 0 0
2.5559513158935667 1.1359048813489985 -0.7171750734877013 255 0 0
2.5559513158935667 1.1359048813489985 -0.7171750734877013 255 0 0
-0.8508575185495549 -8.42113607647116 -9.702419381943226 255 0 0
-0.9951960751457436 -8.827328821759405 -10.083821069555473 255 0 0
-1.1062940356121358 -9.07372759538031 -10.379448485739339 255 0 0
-1.2878270606208626 -9.622694083705037 -10.91080207428353 255 0 0
-1.3417542936099434 -9.837355395535901 -11.115714931219568 255 0 0
2.689591916407605 1.979118138818484 -0.6171145030974589 255 0 0
2.4413596381720066 1.254258432315623 -1.3182016210763137 255 0 0
-2.041355149723401 -9.562273245705562 -11.60475543063624 255 0 0
-1.323089925294273 -9.560991263489608 -11.10674717545584 255 0 0
-1.2439300280761791 -9.237065069008496 -10.842586255860994 255 0 0
2.511960369934741 2.0592069458670563 -1.3014760490076909 255 0 0
-1.4041838161161948 -9.056214006323751 -11.569737966342764 255 0 0
-1.326462838624413 -8.62242687031711 -11.464273250828205 255 0 0
-1.1070686829780654 -7.981717320402265 -10.892486253664094 255 0 0
-1.5475496807917393 -9.192889970492919 -12.114620029961143 255 0 0
-1.3400275538884425 -8.479197733899694 -11.78382335337286 255 0 0
-1.5213091285773899 -8.833408779177928 -12.122935300084082 255 0 0
2.361258997153775 3.0140102912488667 -2.2439765646706276 255 0 0
-1.3290927126973964 -7.865934499969255 -12.161271930157069 255 0 0
-1.1221312511208703 -7.000120375829542 -11.487420815160862 255 0 0
-0.9921776074450911 -6.273900629483992 -10.855378182852082 255 0 0
2.258829719169705 3.443490067399349 -2.921380105611139 255 0 0
0.9539903514186022 0.015096390483182037 -6.417811872831966 255 0 0
1.0471739436805512 1.0514526695892175 -6.583923107747323 255 0 0
1.3151981621620794 1.966121416757865 -6.081820714632524 255 0 0
-1.2876001374645707 -5.464625258691695 -12.776538432470133 255 0 0
-0.7315494044244678 -3.2906273861642923 -11.586302234861689 255 0 0
-1.5219136465874181 -5.799709879042868 -14.14595565149139 255 0 0
0.867900770001254 1.8545550683607148 -7.730513766548833 255 0 0
1.1796930844423876 2.8099863561750134 -7.040515955691266 255 0 0
1.442937079404396 3.6092598996332903 -6.4164209330691495 255 0 0
1.018332135948803 2.561887936427152 -7.575134937034433 255 0 0
1.2936872643670525 3.360224203259816 -6.8569554254624565 255 0 0
1.021821492286335 2.8764610786548124 -7.840881322900206 255 0 0
1.279661379134869 3.6783712429853064 -7.149550756797119 255 0 0
1.1288613127766414 3.36646920811568 -7.543078230965771 255 0 0
1.1288613127766414 3.36646920811568 -7.543078230965771 255 0 0
1.4255149642980551 4.273180562592277 -6.793590791089936 255 0 0
0.8584110703717913 2.7320107709255215 -8.342827176338501 255 0 0
1.1387266974123071 3.709429203574694 -7.819952323031718 255 0 0
1.1387266974123071 3.709429203574694 -7.819952323031718 255 0 0
1.1387266974123071 3.709429203574694 -7.819952323031718 255 0 0
1.3837876793091546 4.502643519697787 -7.176369927560061 255 0 0
1.252736649267852 4.185812447249607 -7.471127111648165 255 0 0
-0.5809304270409459 -1.4392293635136502 -12.78415549420758 255 0 0
1.2723884167457655 4.519939514123392 -7.7711678223941085 255 0 0
1.2723884167457655 4.519939514123392 -7.7711678223941085 255 0 0
0.9683445450576121 3.763226531690308 -8.552369417586517 255 0 0
1.3917332296854263 5.154289649834534 -7.405502457664689 255 0 0
1.3917332296854263 5.154289649834534 -7.405502457664689 255 0 0
0.40688854036010386 14.832445488727258 3.4499936839649483 255 0 0
0.3663164686431849 14.674126382983072 3.1791790845016275 255 0 0
0.8239505481514273 3.6304003973014995 -9.002451421404912 255 0 0
0.28120618066292286 13.503544406683991 1.8687333230160816 255 0 0
0.24202859542459326 14.37418488314129 2.58461983285035 255 0 0
1.3199107030899537 5.385180721885083 -7.949868942651282 255 0 0
1.1602178075386242 5.0526010950605835 -8.380319936243966 255 0 0
-1.1226269664161959 -2.100707909110404 -14.939161083958831 255 0 0
-1.5730254242793862 -2.9165600198530344 -15.968952391324006 255 0 0
1.3746098702656444 5.987096654141771 -8.059169334017371 255 0 0
0.9274059970215885 4.69323195985979 -9.270289206166138 255 0 0
-0.6797370656145184 11.99666453868655 -0.560012612764324 255 0 0
-0.6797370656145184 11.99666453868655 -0.560012612764324 255 0 0
1.1621699468851483 5.460867305460319 -8.669625696908533 255 0 0
-0.46278596223765117 13.545585417414609 0.8963224597682413 255 0 0
0.8050614535113064 4.498649940462111 -9.628942370775908 255 0 0
0.3964660380266017 15.868973440349682 2.735601199000178 255 0 0
-1.4857701910075602 -2.34286771019065 -16.024937667455465 255 0 0
-0.47354978265321507 13.889549324008215 0.839819547191367 255 0 0
-1.429111554200084 -1.7348908739422244 -15.725806401660394 255 0 0
0.1825458785356125 16.210837744355278 2.7487183806320323 255 0 0
-1.61624245246581 -2.41858210556495 -16.362068921986353 255 0 0
-0.44901064198492535 14.200787324675728 0.9211190601892071 255 0 0
-0.5178737604914455 13.933191993880868 0.6194494383365418 255 0 0
0.7929025122023987 4.884073350146977 -9.893257347889822 255 0 0
-0.5393551112170113 13.575471004365191 0.21257670187529573 255 0 0
1.346743482588769 6.827269996439679 -8.632134864567904 255 0 0
1.070972942195502 6.087676133659261 -9.353522545723694 255 0 0
2.019198206056969 8.823341309624453 -6.929091939535803 255 0 0
-0.9659381977606947 12.433536447587768 -1.4434716984280052 255 0 0
0.7934923241748132 5.327103260592596 -10.11296240059812 255 0 0
-0.7171569442721842 13.212138306900156 -0.7938340398000903 255 0 0
-1.6023126377233006 -1.561158585558975 -16.549876550947467 255 0 0
-1.0348786646493437 12.55570845853186 -1.6265316083168755 255 0 0
-1.1112695924495393 0.02013578499562299 -15.311253486375401 255 0 0
-1.193738671736257 12.456220443222149 -2.0674877863570695 255 0 0
-1.6702367799141087 -1.4795464449982845 -16.92755588275443 255 0 0
-1.2680877701991042 11.981304112876751 -2.6092477946130446 255 0 0
-1.776407406169055 -1.755683892953887 -17.229418227285223 255 0 0
-1.1499534356164216 0.013553749106301033 -15.76428540593851 255 0 0
0.47396878602028847 16.89013903073973 1.387384618611951 255 0 0
-1.6242490132910714 11.719563974804341 -3.0433645691483546 255 0 0
-0.9508338669799329 13.795054438054812 -1.2016745315852362 255 0 0
-0.9588490352258316 14.0052869974464 -1.2917529835374613 255 0 0
-1.0545099336109822 0.5959438180488011 -15.789806369538507 255 0 0
2.1138246174320376 10.14987115702202 -7.226838504703033 255 0 0
-1.5445577388866876 -0.8089784550143126 -17.34342686794472 255 0 0
-1.194698347375951 13.485130468041897 -2.1758226922132264 255 0 0
-1.6399507847537154 12.507712917261756 -3.01074143872245 255 0 0
-1.4539254814192653 13.051919951450447 -2.7228552270698794 255 0 0
-1.0743945660378664 1.3664693270103987 -15.614922645036497 255 0 0
2.092556620670344 11.046756946292254 -7.042122260948436 255 0 0
-0.4743976224907859 16.248401642908252 -0.0524140837751781 255 0 0
-0.8587975615188198 15.199123604387767 -1.9490597414933946 255 0 0
-1.4298461713245019 14.464102366514775 -2.665641764626224 255 0 0
-1.4007306300785058 14.69384802845565 -2.4919388013806887 255 0 0
-1.6065810033681533 13.983542501108449 -3.153305728894661 255 0 0
-0.7120470131178045 16.740676494472368 -0.8048745301085812 255 0 0
-1.1285023451279965 2.2112808077839667 -16.515080649734966 255 0 0
0.48021664400777375 18.673877764732094 -0.17136598877330078 255 0 0
1.215200964984594 9.546942163422731 -10.51085172818877 255 0 0
1.4621747802344172 10.261581053972504 -9.90026782895236 255 0 0
-1.0842098558574977 2.943529404315974 -16.519085567664984 255 0 0
-0.7650372291739954 3.8992417332292377 -15.705385278750706 255 0 0
-1.31176989824203 2.419061605142904 -17.08373049257669 255 0 0
0.48910625497205673 18.421825894723472 -0.791900759131694 255 0 0
-1.223754879063554 2.8895390552281377 -17.05489405165479 255 0 0
-1.1223445727831325 3.3464511163848947 -16.905185414557984 255 0 0
-1.2997332666150605 2.9342207634132844 -17.34570572798968 255 0 0
1.2441391311757453 10.35670330983436 -10.809191191967429 255 0 0
1.3734078003453993 10.70530120624214 -10.539963973937848 255 0 0
-1.3545152004506362 3.1948842760085356 -17.677284155440795 255 0 0
-1.379979882497544 3.206660795066419 -17.67925876648267 255 0 0
-1.497919061999881 15.443669496944572 -4.708998096180329 255 0 0
-0.21148006369210448 19.047979571670645 -1.624519500618823 255 0 0
-1.2269693841026748 4.05447538842914 -17.67411741934442 255 0 0
-1.855292933644856 2.3990313468088353 -19.320347394591163 255 0 0
-1.410480724341702 3.7092662627919055 -18.234300294401166 255 0 0
-1.267236770335304 4.32277757879612 -17.96342903774545 255 0 0
-1.3549143238924015 4.093169100813095 -18.21095248166405 255 0 0
-0.8504491004862684 5.64246315229895 -17.09097970929185 255 0 0
-7.523430959736069 2.4125530811778515 -18.097610399577597 255 0 0
1.4937912031250864 12.615959865257011 -11.052245399364683 255 0 0
-1.2946795277408667 4.5046989361694365 -18.268213272259743 255 0 0
