ply
format ascii 1.0
comment written by Dennis Cheung
element vertex 323
property float32 x
property float32 y
property float32 z
property uchar red
property uchar green
property uchar blue
end_header
-2.9113998891660575 -14.203455643964535 6.167492125119506 255 0 0
-2.1124345959989137 -16.582973718847178 3.1377378826301996 255 0 0
-2.0778587823341024 -16.114878180497342 2.387704061617029 255 0 0
-4.209755785808352 -10.58810737718279 7.12155199999878 255 0 0
-1.945300674734936 -16.254018381021364 2.078559508336371 255 0 0
-2.8745052089964993 -11.51353956304623 5.327211723055722 255 0 0
-2.100573581996641 -14.582105419492452 1.7807983978202109 255 0 0
0.5687576671011559 -2.947446468955586 13.111387592286794 255 0 0
-2.1842934461230636 -11.829226783856116 2.770439164750421 255 0 0
1.217813267566119 -4.336905175654215 11.782325799721699 255 0 0
0.6902374732647634 -3.20318611723831 12.694421504956418 255 0 0
0.6460883723023181 -3.015700547922109 12.798703230337912 255 0 0
0.5044277347030833 -2.586491088501017 12.87593164419381 255 0 0
-13.975003675121842 -2.3173124163157555 -1.3001864437130408 255 0 0
-33.6321407551796 -4.887037510970501 -2.555352778145386 255 0 0
0.760630779405695 -3.4170828755567024 10.931444254624294 255 0 0
-1.823944636720474 -10.610206752812205 2.168383011307249 255 0 0
-0.43748830071215405 -0.25509333039620496 13.621195956982303 255 0 0
-0.3177997357326948 -0.271882980929513 13.159705210441532 255 0 0
1.809567240923987 -5.424306226044056 8.61569346777026 255 0 0
-0.2353406217812337 -0.29026475534561696 12.858465239290686 255 0 0
1.1246244713505993 -3.5640597936365443 9.932399891203433 255 0 0
0.7122904592828236 -2.480345787512653 10.756745991000912 255 0 0
-0.35653676926988126 0.4269922781459153 13.336372763519712 255 0 0
1.1358956862238183 -4.2649690275344705 9.05851966417813 255 0 0
0.8960203354445403 -17.828753786265622 -5.385675029037238 255 0 0
0.6815057838133244 -17.224686943339346 -4.878955222037346 255 0 0
1.191698907423627 -3.3624898394173948 9.789539712060524 255 0 0
-1.992194621911138 -9.09471232073658 2.176789643835896 255 0 0
0.05917682498785333 -0.7300720707756638 11.810620421060054 255 0 0
1.2947308283876373 -3.5639974246290715 9.33676828273953 255 0 0
-0.144443514602902 0.023742464753940894 12.439192364299458 255 0 0
0.023352152085930247 -0.3384292284095536 12.068593223178832 255 0 0
0.6780598799897386 -1.9921549530686 10.594344348315538 255 0 0
-1.3449495606496962 -10.37823819278089 0.8267758787231902 255 0 0
-0.4081040497796029 1.1166620890610186 13.253812078301449 255 0 0
0.07963778284997307 -0.4828230866912095 11.62942259855595 255 0 0
1.2343062033482912 -2.9665868600593726 9.522732361821157 255 0 0
0.7732632533909132 -1.9757878778140376 10.330490387680845 255 0 0
0.9769059994911764 -2.361280045035884 10.011496343030258 255 0 0
-0.15880130422318933 0.3102172210809317 12.28285495717794 255 0 0
-0.20482008345842734 0.4585874212970816 12.383299081878834 255 0 0
1.1076336559202205 -2.6546579565813855 9.671383663594094 255 0 0
-1.843367296465572 -8.579367992537904 1.9270842672470416 255 0 0
1.2002032306631252 -2.5939934128041355 9.458870210888156 255 0 0
1.7921472692004596 -3.965913586414548 8.22455487037829 255 0 0
1.7921472692004596 -3.965913586414548 8.22455487037829 255 0 0
-1.5788597198140664 -9.200728547384074 1.1173832656267493 255 0 0
1.977090395211344 -4.475097620228671 7.701106195639472 255 0 0
0.9961581875738144 -1.8431319151215906 9.931613188320231 255 0 0
1.6702471727267558 -3.3808352908906 8.60808388328823 255 0 0
1.9308741171985835 -4.215862145258361 7.722583026196404 255 0 0
-0.11037743619344297 0.6703062130699977 11.934273418895955 255 0 0
1.6909662637250489 -3.4756078155393184 8.33008705534278 255 0 0
1.6909662637250489 -3.4756078155393184 8.33008705534278 255 0 0
0.4881723643149288 -15.251719106041858 -4.632927996505673 255 0 0
1.8552348863551313 -3.9300088233365456 7.896182039421359 255 0 0
-0.08056433642828222 0.73123773025908 11.842686952582676 255 0 0
1.569039351977389 -2.7864413813056337 8.810663965586416 255 0 0
1.0598173202192964 -1.7605524260926257 9.629377385740568 255 0 0
-0.3645970595446645 1.3088255104780582 12.192632532818875 255 0 0
-0.35052532707505024 1.4121417698215843 12.258042480383104 255 0 0
0.11712517039717715 0.3928450830127476 11.376338472225537 255 0 0
-1.4312174769533101 -9.186223720561523 0.5175819256843801 255 0 0
-1.4312174769533101 -9.186223720561523 0.5175819256843801 255 0 0
1.5808939694429551 -2.6716339863858356 8.725908091889695 255 0 0
1.02882051799161 -1.5234325022157336 9.68734000988523 255 0 0
0.7571664963341579 -0.9844695796876526 10.12533655303346 255 0 0
0.9755100734124208 -1.3715343197414798 9.795112682691713 255 0 0
0.5559976697356255 -15.216599343212604 -5.051813328253209 255 0 0
-1.7002963366704191 -8.298224672555202 1.1794598056222332 255 0 0
-0.11694786493478387 1.0993788333881374 11.790232239771617 255 0 0
-1.3105799567510015 -9.418445928040029 0.15247797530220086 255 0 0
0.08041509070918255 0.7310587143538025 11.456588411567385 255 0 0
0.4646702289595656 -0.03667902670983483 10.75732398319316 255 0 0
0.8705179910152725 -1.0895967221870637 9.826405221309692 255 0 0
0.8705179910152725 -1.0895967221870637 9.826405221309692 255 0 0
1.8180405901269 -3.3245109046684664 7.8078509907156075 255 0 0
0.1958422708751784 0.4334118960138237 10.976330966203085 255 0 0
-1.9418329941067791 -7.408951073061492 1.6599545879271278 255 0 0
0.7047566738339688 -0.40204681056812513 10.180822267435879 255 0 0
-1.7763308589820253 -7.780494801111925 1.1928141321096433 255 0 0
0.7441066687291802 -0.558276946736111 9.936311491805347 255 0 0
1.0572750602385848 -1.125211535045557 9.415473711216286 255 0 0
0.1597574431785354 0.9564781000732724 11.180751950539687 255 0 0
1.4533561583126893 -1.913825301951544 8.717288391105972 255 0 0
2.0031901428005443 -3.2054258124562844 7.497235576714061 255 0 0
1.6239304849760572 -2.200914004492585 8.363094299759274 255 0 0
0.5792493877455905 -14.655935338778571 -5.229707646265019 255 0 0
1.9158767321173125 -3.4912411474416936 7.075925768374687 255 0 0
1.5901956452075576 -2.0163692682622574 8.454838051154649 255 0 0
0.4473578135941699 0.5756361230984685 10.62189715799367 255 0 0
0.0675790633084308 1.3149479133154582 11.086418856480918 255 0 0
0.6668219059622058 0.07885211243851722 9.958951942877153 255 0 0
1.632284121292783 -1.930265340185565 8.259947060079828 255 0 0
1.8374688248149498 -2.639855624832597 7.562618420126546 255 0 0
1.6948916860279346 -2.1317966725284037 7.949800034985313 255 0 0
0.18891897782370481 1.2291443646300955 10.679395476629756 255 0 0
-1.4261935660568175 -8.243785346140221 -0.08306105322764033 255 0 0
0.6692552611156636 -14.433209309876005 -5.679510887697451 255 0 0
1.9607554663333917 -2.7637536284002926 7.1576496826202805 255 0 0
0.9084778316919939 -0.39811039597240266 9.167990637325689 255 0 0
0.45598749125458643 0.8460544736856801 10.183926156793166 255 0 0
0.45598749125458643 0.8460544736856801 10.183926156793166 255 0 0
0.056452213270492636 1.7448710102901284 10.941576839092999 255 0 0
0.056452213270492636 1.7448710102901284 10.941576839092999 255 0 0
1.6078872011242331 -1.6445958749432144 8.073915836037909 255 0 0
0.8663842192931247 -0.05967632727725438 9.366309230639404 255 0 0
-1.265862050250437 -8.446808020116004 -0.5304859018527582 255 0 0
1.6348338263656557 -1.636398066884032 7.997006695431501 255 0 0
0.03765326903886306 1.8510564575984771 10.688899758174262 255 0 0
-1.8883183173838811 -6.464578219378192 0.925806149736397 255 0 0
0.05850551194683811 1.8010005993332057 10.549936727247834 255 0 0
1.569117175929085 -1.5080008784337773 7.746787742625061 255 0 0
1.4738318739204128 -1.1397864253254026 8.021315092029369 255 0 0
-1.7391965302057348 -6.852118631758385 0.4874885923665267 255 0 0
1.8585808784823412 -2.971218992293045 6.2194211350314275 255 0 0
1.0295193791408068 -15.021560962899507 -6.89184534614951 255 0 0
1.6232658395274824 -1.6674218898551945 7.392738060422003 255 0 0
0.004940812595147566 2.0614508108797547 10.52791629101713 255 0 0
0.7279855182295533 0.44773938798068036 9.072511316711145 255 0 0
0.7690551753807929 0.24003956992116246 8.862525107384663 255 0 0
0.14203958753460869 1.780377197629314 10.080376684988174 255 0 0
1.5088126457967996 -1.2640976840700113 7.453491310753875 255 0 0
1.7783485405575088 -2.538101324114483 6.221674540762655 255 0 0
0.1775963128993159 1.5883732419154915 9.792965113020482 255 0 0
-0.5139241909216294 3.2446109810740666 11.186756107289295 255 0 0
0.16125824501159336 1.6473059703445567 9.798983741770655 255 0 0
0.8902124285217167 -14.3068552628786 -6.689322168506825 255 0 0
0.8705874107137331 0.12283869684456931 8.441459322764493 255 0 0
0.6682689777799284 -13.61825515902231 -6.139705900071212 255 0 0
0.9314893673271698 0.004565494505604296 8.314078792386137 255 0 0
0.9648757533121834 -0.16980466194568927 8.136738012834963 255 0 0
0.1364972500307725 1.7926121204675656 9.722290356015202 255 0 0
-0.2702108746873193 3.0138213968992087 10.681467136305315 255 0 0
-0.36070894953835875 3.170281169846646 10.773772896810407 255 0 0
-0.07413296168634932 2.5470953738483977 10.224486804179039 255 0 0
0.4751873052689689 1.1754103351352714 8.963679029156442 255 0 0
0.4751873052689689 1.1754103351352714 8.963679029156442 255 0 0
0.7405379400251344 -13.580740270523258 -6.474780776590997 255 0 0
-1.3673796037362795 -7.260434417264676 -0.8140198661938218 255 0 0
0.5081572529663081 1.0776175965684058 8.754888356536128 255 0 0
1.1247472562092653 -14.660225825153603 -7.5638677622470984 255 0 0
-0.2326215155767318 3.2193267417860865 10.48271509174526 255 0 0
0.11697439947138279 2.0290472229401173 9.355535905717925 255 0 0
0.9352474019742314 -0.06419291602609073 7.505644377918906 255 0 0
1.2564964359814892 -14.852502716159588 -7.950794293526741 255 0 0
0.695898680716148 0.5192150328193065 7.9818136666943325 255 0 0
1.1696748029278001 -0.5872189680326605 7.015420906496188 255 0 0
1.1696748029278001 -0.5872189680326605 7.015420906496188 255 0 0
-0.056301655261646065 2.7593361442257196 9.919986305480778 255 0 0
-0.4761490697617242 4.194144072274975 11.03527993068615 255 0 0
-0.14759066802084062 3.074511282966248 9.965764583491314 255 0 0
0.9211052087858512 -13.607419012549938 -7.249766667785395 255 0 0
0.1884260591202906 2.1382872703015465 8.955385394229276 255 0 0
0.6867824306226747 0.976327472105455 7.949367780559976 255 0 0
-0.43070742156695013 4.3611887097516355 10.685701015697653 255 0 0
-0.14080563790305378 3.1661162976433777 9.539701803333605 255 0 0
0.9530509498158184 -13.446607902070978 -7.571796997745726 255 0 0
-0.4365018397340626 4.528947478530343 10.662287405193219 255 0 0
0.8134406602489147 1.304804961087542 7.818842265079483 255 0 0
-0.2779269556491359 3.9031745586596474 10.008998055817726 255 0 0
-1.3578043062130478 -6.3193955300145666 -1.4280667087488754 255 0 0
-2.325376552300471 -5.704973141438713 -1.922418528487889 255 0 0
-1.1887191487023692 -6.511095077107669 -1.8871707818604946 255 0 0
0.8145041374998153 -12.60944950549784 -7.3855766485947365 255 0 0
-0.45657541021436016 4.920762638204755 10.248149017133406 255 0 0
-0.5455269660201821 5.008635284681583 10.355474073842393 255 0 0
0.5836736047123469 0.4203917521948149 5.350494464065028 255 0 0
-1.3202746222856463 -5.3660945742331565 -2.1377410124927723 255 0 0
-1.1773276176145027 -5.548195580813744 -2.5467496338324302 255 0 0
0.5760400424162814 -11.118850030363506 -7.716456066270355 255 0 0
-22.962784637159046 5.812464098701156 1.3024788168091326 255 0 0
11.61899273791312 -1.0661349059954404 6.851560505611761 255 0 0
0.6078020611967729 -10.561126660052302 -7.674361555502525 255 0 0
0.8404231726511466 -11.4173883636762 -8.631000555385 255 0 0
-1.313336842311408 -4.4084476195914375 -2.708781923323736 255 0 0
0.6284119072135314 -10.448101147529528 -8.174603293866449 255 0 0
-1.6171007019202874 -3.554261596198214 -1.989421762542567 255 0 0
-2.432868634457767 -1.0952605195075846 0.22098681858807762 255 0 0
-1.742126546796522 -2.968740641269768 -1.7089758588745612 255 0 0
-1.4309200378762934 -3.812346377137158 -2.449555794150213 255 0 0
-1.1710007399888211 -4.601447773905917 -3.1943263214434405 255 0 0
0.2738101994051366 4.950948872356809 7.495494838036487 255 0 0
0.5645748323817495 -9.691641665781535 -8.199177011843846 255 0 0
-2.5578417668805677 -0.14960769141751346 -0.10827102339203494 255 0 0
0.7670979665627821 5.476409048801048 5.935049656773363 255 0 0
-2.5559513158935694 1.1359048813489987 -0.717175073487701 255 0 0
-2.5559513158935694 1.1359048813489987 -0.717175073487701 255 0 0
0.850857518549545 -8.42113607647116 -9.702419381943223 255 0 0
0.9951960751457334 -8.827328821759405 -10.08382106955547 255 0 0
1.1062940356121256 -9.07372759538031 -10.379448485739337 255 0 0
1.2878270606208515 -9.622694083705039 -10.910802074283525 255 0 0
1.3417542936099323 -9.837355395535903 -11.115714931219566 255 0 0
-2.6895919164076068 1.9791181388184842 -0.6171145030974589 255 0 0
-2.4413596381720093 1.2542584323156232 -1.3182016210763132 255 0 0
2.0413551497233993 -9.562273245705562 -11.604755430636239 255 0 0
1.3230899252942625 -9.56099126348961 -11.106747175455839 255 0 0
1.2439300280761685 -9.237065069008496 -10.842586255860992 255 0 0
-2.511960369934743 2.0592069458670568 -1.3014760490076909 255 0 0
1.4041838161161846 -9.056214006323753 -11.569737966342759 255 0 0
1.326462838624402 -8.62242687031711 -11.464273250828203 255 0 0
1.1070686829780552 -7.981717320402267 -10.89248625366409 255 0 0
1.5475496807917284 -9.192889970492919 -12.114620029961143 255 0 0
1.3400275538884323 -8.479197733899696 -11.783823353372854 255 0 0
1.521309128577379 -8.83340877917793 -12.122935300084082 255 0 0
-2.3612589971537767 3.0140102912488667 -2.2439765646706276 255 0 0
1.3290927126973855 -7.8659344999692555 -12.161271930157067 255 0 0
1.1221312511208605 -7.000120375829542 -11.487420815160862 255 0 0
0.9921776074450821 -6.273900629483993 -10.855378182852082 255 0 0
-2.258829719169707 3.4434900673993494 -2.9213801056111386 255 0 0
-0.9539903514186072 0.015096390483181761 -6.417811872831965 255 0 0
-1.0471739436805556 1.0514526695892163 -6.583923107747321 255 0 0
-1.3151981621620832 1.9661214167578642 -6.081820714632524 255 0 0
1.2876001374645605 -5.464625258691695 -12.776538432470131 255 0 0
0.7315494044244594 -3.2906273861642936 -11.586302234861689 255 0 0
1.5219136465874075 -5.79970987904287 -14.145955651491388 255 0 0
-0.8679007700012594 1.8545550683607133 -7.730513766548833 255 0 0
-1.1796930844423916 2.809986356175013 -7.040515955691265 255 0 0
-1.4429370794044 3.6092598996332885 -6.416420933069148 255 0 0
-1.0183321359488076 2.561887936427151 -7.5751349370344325 255 0 0
-1.293687264367056 3.3602242032598166 -6.856955425462455 255 0 0
-1.02182149228634 2.876461078654811 -7.840881322900206 255 0 0
-1.2796613791348737 3.6783712429853064 -7.149550756797118 255 0 0
-1.128861312776646 3.3664692081156784 -7.543078230965771 255 0 0
-1.128861312776646 3.3664692081156784 -7.543078230965771 255 0 0
-1.4255149642980587 4.273180562592275 -6.793590791089936 255 0 0
-0.8584110703717962 2.7320107709255215 -8.342827176338501 255 0 0
-1.1387266974123116 3.709429203574692 -7.819952323031717 255 0 0
-1.1387266974123116 3.709429203574692 -7.819952323031717 255 0 0
-1.1387266974123116 3.709429203574692 -7.819952323031717 255 0 0
-1.3837876793091584 4.502643519697785 -7.17636992756006 255 0 0
-1.2527366492678542 4.185812447249607 -7.471127111648166 255 0 0
0.580930427040938 -1.4392293635136508 -12.784155494207576 255 0 0
-1.2723884167457695 4.519939514123391 -7.771167822394108 255 0 0
-1.2723884167457695 4.519939514123391 -7.771167822394108 255 0 0
-0.9683445450576158 3.763226531690308 -8.552369417586517 255 0 0
-1.3917332296854283 5.154289649834533 -7.405502457664689 255 0 0
-1.3917332296854283 5.154289649834533 -7.405502457664689 255 0 0
-0.4068885403600944 14.832445488727258 3.449993683964946 255 0 0
-0.3663164686431744 14.674126382983074 3.179179084501626 255 0 0
-0.8239505481514312 3.6304003973014987 -9.00245142140491 255 0 0
-0.2812061806629151 13.503544406683991 1.8687333230160799 255 0 0
-0.24202859542458505 14.37418488314129 2.5846198328503482 255 0 0
-1.3199107030899575 5.385180721885082 -7.949868942651282 255 0 0
-1.1602178075386282 5.052601095060581 -8.380319936243964 255 0 0
1.1226269664161865 -2.1007079091104064 -14.939161083958831 255 0 0
1.5730254242793744 -2.9165600198530357 -15.968952391324 255 0 0
-1.3746098702656475 5.987096654141769 -8.059169334017371 255 0 0
-0.9274059970215934 4.693231959859791 -9.270289206166137 255 0 0
0.6797370656145231 11.99666453868655 -0.5600126127643245 255 0 0
0.6797370656145231 11.99666453868655 -0.5600126127643245 255 0 0
-1.1621699468851525 5.460867305460317 -8.66962569690853 255 0 0
0.4627859622376596 13.54558541741461 0.89632245976824 255 0 0
-0.8050614535113104 4.498649940462111 -9.628942370775908 255 0 0
-0.39646603802659114 15.868973440349682 2.735601199000175 255 0 0
1.4857701910075514 -2.342867710190652 -16.024937667455465 255 0 0
0.47354978265322245 13.889549324008211 0.8398195471913643 255 0 0
1.4291115542000745 -1.7348908739422273 -15.725806401660392 255 0 0
-0.18254587853560142 16.21083774435528 2.748718380632031 255 0 0
1.6162424524657997 -2.418582105564951 -16.362068921986353 255 0 0
0.4490106419849339 14.20078732467573 0.9211190601892054 255 0 0
0.5178737604914532 13.933191993880866 0.61944943833654 255 0 0
-0.7929025122024022 4.884073350146977 -9.893257347889818 255 0 0
0.5393551112170182 13.575471004365191 0.21257670187529398 255 0 0
-1.3467434825887705 6.8272699964396795 -8.632134864567906 255 0 0
-1.070972942195506 6.087676133659259 -9.353522545723692 255 0 0
-2.0191982060569695 8.823341309624452 -6.929091939535803 255 0 0
0.9659381977607004 12.433536447587768 -1.443471698428006 255 0 0
-0.7934923241748173 5.327103260592594 -10.112962400598118 255 0 0
0.7171569442721901 13.212138306900155 -0.7938340398000924 255 0 0
1.602312637723291 -1.5611585855589767 -16.549876550947463 255 0 0
1.0348786646493473 12.555708458531859 -1.6265316083168766 255 0 0
1.1112695924495297 0.020135784995621936 -15.311253486375401 255 0 0
1.1937386717362615 12.456220443222149 -2.067487786357071 255 0 0
1.6702367799140994 -1.4795464449982865 -16.92755588275443 255 0 0
1.2680877701991076 11.981304112876751 -2.6092477946130463 255 0 0
1.776407406169045 -1.7556838929538896 -17.22941822728522 255 0 0
1.1499534356164125 0.013553749106300741 -15.764285405938509 255 0 0
-0.47396878602028086 16.890139030739725 1.3873846186119494 255 0 0
1.6242490132910745 11.719563974804341 -3.043364569148356 255 0 0
0.9508338669799385 13.795054438054812 -1.2016745315852375 255 0 0
0.9588490352258383 14.0052869974464 -1.2917529835374624 255 0 0
1.0545099336109742 0.5959438180487994 -15.789806369538503 255 0 0
-2.113824617432038 10.149871157022018 -7.226838504703032 255 0 0
1.5445577388866796 -0.8089784550143149 -17.343426867944714 255 0 0
1.1946983473759567 13.485130468041897 -2.1758226922132273 255 0 0
1.63995078475372 12.507712917261752 -3.010741438722451 255 0 0
1.4539254814192686 13.051919951450444 -2.722855227069881 255 0 0
1.0743945660378567 1.3664693270103974 -15.614922645036492 255 0 0
-2.092556620670345 11.046756946292254 -7.042122260948436 255 0 0
0.47439762249079187 16.24840164290825 -0.05241408377517999 255 0 0
0.8587975615188242 15.199123604387768 -1.9490597414933957 255 0 0
1.4298461713245072 14.464102366514773 -2.6656417646262254 255 0 0
1.4007306300785116 14.693848028455651 -2.4919388013806896 255 0 0
1.6065810033681573 13.983542501108449 -3.1533057288946615 255 0 0
0.7120470131178114 16.740676494472364 -0.8048745301085839 255 0 0
1.1285023451279863 2.2112808077839645 -16.515080649734966 255 0 0
-0.4802166440077665 18.673877764732094 -0.17136598877330084 255 0 0
-1.215200964984597 9.546942163422731 -10.510851728188767 255 0 0
-1.4621747802344203 10.261581053972503 -9.90026782895236 255 0 0
1.0842098558574884 2.943529404315972 -16.51908556766498 255 0 0
0.7650372291739878 3.8992417332292355 -15.705385278750704 255 0 0
1.3117698982420216 2.4190616051429044 -17.083730492576684 255 0 0
-0.48910625497204796 18.421825894723472 -0.7919007591316961 255 0 0
1.2237548790635466 2.889539055228136 -17.054894051654788 255 0 0
1.122344572783124 3.346451116384893 -16.905185414557984 255 0 0
1.2997332666150514 2.934220763413281 -17.345705727989678 255 0 0
-1.2441391311757461 10.356703309834359 -10.809191191967425 255 0 0
-1.3734078003454013 10.705301206242138 -10.539963973937844 255 0 0
1.3545152004506265 3.194884276008535 -17.677284155440795 255 0 0
1.379979882497537 3.2066607950664183 -17.67925876648267 255 0 0
1.4979190619998852 15.44366949694457 -4.70899809618033 255 0 0
0.21148006369211353 19.047979571670645 -1.6245195006188249 255 0 0
1.2269693841026652 4.05447538842914 -17.674117419344412 255 0 0
1.8552929336448467 2.399031346808833 -19.32034739459116 255 0 0
1.4104807243416928 3.709266262791906 -18.234300294401162 255 0 0
1.2672367703352923 4.322777578796115 -17.963429037745446 255 0 0
1.354914323892391 4.093169100813094 -18.21095248166405 255 0 0
0.8504491004862617 5.642463152298948 -17.090979709291847 255 0 0
7.523430959736066 2.41255308117785 -18.097610399577594 255 0 0
-1.4937912031250888 12.615959865257011 -11.052245399364681 255 0 0
1.2946795277408587 4.504698936169433 -18.268213272259743 255 0 0
