ply
format ascii 1.0
comment written by Dennis Cheung
element vertex 339
property float32 x
property float32 y
property float32 z
property uchar red
property uchar green
property uchar blue
end_header
3.24534704339813 -11.141903478877115 4.689090759551724 255 0 0
2.282325713671921 -12.649384607763022 1.5909933306146928 255 0 0
2.2354382749761106 -12.260637572755286 1.0306433783372688 255 0 0
2.8623956439028566 -9.001148387196668 3.4785255096655576 255 0 0
2.2525304670939823 -11.104275411675784 0.6049937440648478 255 0 0
-0.9612981433762374 -4.069122095606304 8.803280226500092 255 0 0
-0.47116017862252785 -3.2811998945725867 9.557593445009333 255 0 0
-0.3049446090135727 -2.8297249537430997 9.720974849991446 255 0 0
2.420823710401554 -8.095289606617587 2.0036726376224023 255 0 0
-0.4830283350018768 -3.1308584363492327 9.38564287975328 255 0 0
0.5294983799455545 -2.0839028100530306 9.899951365786855 255 0 0
-0.625037219569957 -3.3607568242190573 8.241516149915187 255 0 0
-0.933346029492853 -4.470937787989566 6.920613286337012 255 0 0
-0.5291617152670581 -3.348506740043983 8.16722195485855 255 0 0
-0.15079126440785642 -2.6182858485253218 8.859537004432747 255 0 0
1.9547221879535759 -8.202302763723157 1.048488668696666 255 0 0
-0.30340584383036207 -2.7876311803710845 8.69038428117443 255 0 0
0.5827989762389134 -1.1545229338925138 10.386991422423725 255 0 0
-0.45935757217698464 -3.0000496473214757 8.283829497367204 255 0 0
-1.510420719518075 -4.7094990661892355 6.281421544887818 255 0 0
-0.8738946621337912 -3.4065010416119823 7.378789525660407 255 0 0
0.5091963527966277 -0.6401331937442198 10.185406835983796 255 0 0
-0.8894520157431631 -3.876435101587911 6.672270801620558 255 0 0
-0.36663900266060434 -12.71136336602282 -4.710579811388855 255 0 0
-1.5250591094407484 -4.301151394414958 6.263932320906964 255 0 0
-0.9351310688944494 -3.251151378688881 7.273484507990703 255 0 0
1.1598694729178063 -8.37457475458631 -0.06381984781054054 255 0 0
2.0570496526636393 -7.074528811075095 1.095404322888605 255 0 0
0.3568475673531711 -0.8801332159839741 9.60826499263526 255 0 0
0.12123820276322585 -1.4163425632417466 8.949272705510888 255 0 0
-1.0339583127122458 -3.378309041936731 6.912020575274034 255 0 0
0.3119588363318552 -0.8903507680579302 9.469023577774909 255 0 0
0.1563738179891697 -1.1403378497718106 9.166232296927385 255 0 0
-0.24748118156315982 -1.9069259420821763 8.346704977422371 255 0 0
-0.42977556650563337 -2.2587189936298526 7.956259116619346 255 0 0
1.5093535569633765 -7.961647642437051 0.002572548496167273 255 0 0
-0.8167159191126976 -2.7633452222945163 7.39183335692421 255 0 0
0.07821264750697957 -1.225682177599105 8.818010766633122 255 0 0
-0.9753808915421472 -2.9464735420151387 7.077341512756085 255 0 0
-0.5509746839377976 -2.2589634363246596 7.746028308177783 255 0 0
-0.7357141182425464 -2.5261236486525585 7.48261175418505 255 0 0
-0.2149141430645716 -1.6567958340022875 8.33738040706097 255 0 0
0.36464804082021396 -0.5687164408951689 9.440387279842886 255 0 0
-0.8573982591258335 -2.725794280102147 7.205080332966319 255 0 0
-0.18958539006319955 -1.5878674906912151 8.362555307086101 255 0 0
1.9757029106255528 -6.693273839002004 0.927159545290702 255 0 0
-0.604821044559737 -2.2059684927429677 7.620736684861667 255 0 0
-0.21682624368695344 -11.774598954271342 -4.549340891230067 255 0 0
-0.9525698097646347 -2.6712079137697913 7.039898338053083 255 0 0
-1.4985563963974364 -3.617847866862045 6.025129682174942 255 0 0
1.732534111540198 -7.109886651147717 0.2724568071934406 255 0 0
-1.6687746024209167 -3.965738630363512 5.597428600633557 255 0 0
-0.7759895713720084 -2.1475876273976917 7.329761626229894 255 0 0
-1.6270649034928115 -3.777495869056042 5.6237511448436095 255 0 0
-0.7172665603843169 -12.516462975958598 -5.737085891713122 255 0 0
-1.4034309778531842 -3.265244188856683 6.124072476519649 255 0 0
-0.20380962135195405 -11.274161275334334 -4.446443205414691 255 0 0
-1.5588308616251767 -3.5684525679697368 5.771694446206421 255 0 0
-1.3465603662011845 -2.9188917145387565 6.462214754405568 255 0 0
-0.33089979240373835 -1.5020180853720038 7.851607460360397 255 0 0
0.25127260106895905 -0.3444611002154094 9.029975211732188 255 0 0
-0.3368117618356649 -1.3250660227775115 8.03361132985566 255 0 0
-0.3368117618356649 -1.3250660227775115 8.03361132985566 255 0 0
-1.2951114285135588 -2.777960422884867 6.526333061507369 255 0 0
-0.8173136857603579 -2.0658090335840944 7.204856509542881 255 0 0
0.5085473080686685 0.06518245187579655 9.320340132670957 255 0 0
0.49785555185192326 0.13856534414293262 9.375581206621831 255 0 0
0.0678744380310508 -0.5662604005631034 8.648755843093657 255 0 0
1.5884019257730617 -7.067203301660466 -0.1973066894743048 255 0 0
-0.785767900707218 -1.8933741539973314 7.257476444103611 255 0 0
-0.5368626374918267 -1.520334600940669 7.619982805517944 255 0 0
-0.25168423073765256 -11.23010209267532 -4.776503382732744 255 0 0
1.8484056441568875 -6.44878858195773 0.3498984845141646 255 0 0
0.27282281020111177 -0.06834792928716624 8.99610035864874 255 0 0
24.519425068333273 1.6602747094636887 3.436546034797189 255 0 0
-0.6478067267315599 -1.5773723703831053 7.381014286304903 255 0 0
-1.3325663207051828 -2.5570091172453773 6.393096546294845 255 0 0
-0.756741192960452 -1.7115201918428398 7.182754480773172 255 0 0
-1.524112699249628 -3.1240924516352915 5.721338484669376 255 0 0
-0.02236491676624412 -0.518551688472679 8.335220106540172 255 0 0
-0.5249289788007284 -1.1948166730945995 7.484705730519537 255 0 0
-1.2913692364491016 -2.316317573710169 6.379976931314678 255 0 0
0.1939121016689087 0.15010747938726487 8.872698434794613 255 0 0
-0.813724973400597 -1.587841247941413 7.060482020763286 255 0 0
0.01689735583791981 -0.1251017135479793 8.51471516615575 255 0 0
-1.178007145744312 -2.1344477810013758 6.488019092252499 255 0 0
-1.1816687260328336 -2.134206087407614 6.48648775584575 255 0 0
-1.4077637255808606 -2.4688295291462707 6.121234610747522 255 0 0
-1.7002189751774497 -3.020884259308022 5.481779419860164 255 0 0
-0.2793497642842288 -10.804672582570895 -4.893862201648814 255 0 0
-1.6143761235039324 -3.209010283762219 5.14317176083019 255 0 0
-1.3581876674977238 -2.121202363403959 6.122816719906446 255 0 0
-1.5425627697518374 -2.6080398251142496 5.552107786278597 255 0 0
-1.4349410831934835 -2.257089140530387 5.876096437064623 255 0 0
-1.12461038578689 -1.6807275354355404 6.402007790888695 255 0 0
0.6438285238906938 0.9413983979021436 8.897426164400132 255 0 0
-0.35741945451962714 -10.620833258391567 -5.241939925724615 255 0 0
-0.35741945451962714 -10.620833258391567 -5.241939925724615 255 0 0
-0.6734908606485683 -1.0392778794942512 6.894552021066188 255 0 0
-0.6224907289303313 -0.7618138294804401 7.153257361281622 255 0 0
-0.2549250116182896 -0.17392466485722044 7.729223209339038 255 0 0
-1.3375045213573398 -1.9015990674151606 5.988974305849985 255 0 0
1.4330808571324256 -6.475633049111377 -0.9941292293963205 255 0 0
-1.3586683937570263 -1.8914372180275973 5.929092979856291 255 0 0
0.31592765678153184 0.6936010590174465 8.475984586068558 255 0 0
-1.2604861597535588 -1.7352480481704888 6.026374489661196 255 0 0
0.1331546671711768 0.5399653104774583 8.160076036014292 255 0 0
2.0068530751112137 -5.088096562473244 0.2165463376578273 255 0 0
2.0068530751112137 -5.088096562473244 0.2165463376578273 255 0 0
-1.449128384832927 -2.224163970155199 5.257341373587442 255 0 0
0.303463581824732 0.8149607726983588 8.344289871609329 255 0 0
-1.2942970189954142 -1.7844174113706146 5.736219588587413 255 0 0
1.8673799090941159 -5.349936274604164 -0.14076126404024045 255 0 0
-1.2142537871632375 -1.5275954410579344 5.965951572221038 255 0 0
-1.262510303713399 -1.6483683279382972 5.81721848295604 255 0 0
-1.5617351913786612 -2.7835555836067405 4.48897950955852 255 0 0
-1.5617351913786612 -2.7835555836067405 4.48897950955852 255 0 0
-0.70406898945617 -10.992161579678987 -6.209821626114201 255 0 0
-1.3429417210825159 -1.8834373887877693 5.452762728797658 255 0 0
-1.3254862764162845 -1.8018111740210128 5.527541752644205 255 0 0
0.16651379793835103 0.704385425748131 8.041519088691727 255 0 0
-0.5109270345074477 -0.4111400779778512 6.843163293467765 255 0 0
0.18459784542415195 0.835685823542725 8.04314392211897 255 0 0
0.02671251837822935 0.5190094879410935 7.679935537681074 255 0 0
0.2937306387280433 1.0010002084877139 8.153360383846413 255 0 0
0.005257306590069942 0.39216111034654444 7.449002200740596 255 0 0
0.6434111237765744 1.540336271872495 8.599703185996182 255 0 0
-0.5770830482275104 -10.473834868717972 -6.027043413574452 255 0 0
-0.6419829172057532 -0.6198036023064856 6.338505037277708 255 0 0
-0.49265108475666264 -0.34529933061673096 6.5986854026389965 255 0 0
-0.6970024628478297 -0.7001761632526208 6.2334131784477975 255 0 0
-0.7222663453338592 -0.8160077872142919 6.0889043795364115 255 0 0
-1.3037016281507705 -1.7200411644548466 5.145905649165228 255 0 0
-0.240157754509005 0.18158538199727892 7.0539202664947185 255 0 0
0.04136825204773829 0.5447929714826687 7.401966389382411 255 0 0
1.8312336683540527 -5.0061304834820755 -0.40641041690342916 255 0 0
1.8312336683540527 -5.0061304834820755 -0.40641041690342916 255 0 0
-0.3251728551606963 -0.026475455440647184 6.765990886504073 255 0 0
0.5983138707524203 1.6005637485490303 8.35863546315515 255 0 0
0.5030178265503377 1.5072335878502203 8.273162725521837 255 0 0
0.23450581431831077 1.177510762529389 7.948270422955893 255 0 0
-0.20726440965150453 0.24982815864321564 6.947670129468775 255 0 0
-0.4381648424226269 -9.953798173047225 -5.8332252619300915 255 0 0
1.523965733004592 -5.585196711908287 -1.1745886639844627 255 0 0
-0.5367656691517431 -10.052043359140193 -6.0481458811501065 255 0 0
1.3777557349569345 -5.719319318061794 -1.4940569940032848 255 0 0
0.13020495167698684 1.0099159147073409 7.490698690090846 255 0 0
0.39009072432113157 1.5575001830060613 8.045888404840818 255 0 0
0.05794720550790033 0.7368512051456063 7.121000207941184 255 0 0
-0.6417926864872795 -0.5634560971896966 5.743279373295254 255 0 0
-0.47978757175402903 -0.3036390275586589 5.991284402903805 255 0 0
0.22045480796136044 1.246318858727853 7.589998322647881 255 0 0
-0.40221570576715243 -0.11683787815593061 5.929875898755021 255 0 0
0.30525376201866644 1.4769174776588654 7.636005348353 255 0 0
-0.606648648780594 -9.933092726102174 -6.441074021440849 255 0 0
-3.3185614205710416e-05 0.8383843111189851 6.813006156914733 255 0 0
-0.43326791649400315 -9.507753119404107 -6.058353990794428 255 0 0
-0.2632750032341228 -9.108621132467823 -5.806673016258276 255 0 0
0.5701662510092863 2.387199059652738 8.24608781903652 255 0 0
0.2994360280570402 1.5691462488926469 7.303107486266771 255 0 0
0.142595870174357 1.3130764243708428 6.908598236877446 255 0 0
-0.587914433791524 0.28270432524816796 5.890490238629443 255 0 0
0.4218755220382074 2.0719739678985096 7.697131928551288 255 0 0
0.4218755220382074 2.0719739678985096 7.697131928551288 255 0 0
0.8604218679689937 -4.620906506938885 -1.7866709025266507 255 0 0
-0.7712860553670035 0.29710032509656786 5.589678673019268 255 0 0
1.3526037462370655 -4.982054891532162 -1.9912275179556125 255 0 0
-0.5132052675798304 -9.192168681839101 -6.5167737778849375 255 0 0
0.6733324318216741 2.8803730576769753 8.007925240573911 255 0 0
-0.35347042393515266 -8.600601781375557 -6.513799370465594 255 0 0
-0.36504166724063364 -0.24362380841002226 3.9252425529342805 255 0 0
-0.14035613761415316 1.5214264132530697 5.945567729278188 255 0 0
-0.14035613761415316 1.5214264132530697 5.945567729278188 255 0 0
-0.3062778958810031 -0.05878932805068816 3.7594806210424174 255 0 0
1.4693399061140597 -4.124615505680213 -2.1445306598595373 255 0 0
-0.03745749520079472 -4.361031094337536 -1.9429770845567522 255 0 0
-0.29798514894284406 -8.085819546191612 -6.723842683415746 255 0 0
1.9003147069014708 -2.8990064634679378 -1.2356176146335294 255 0 0
1.9003147069014708 -2.8990064634679378 -1.2356176146335294 255 0 0
-0.3191510726339946 -7.671825910009782 -6.6665482433362735 255 0 0
-0.40375908867453164 -8.011023568826452 -7.140951508297856 255 0 0
1.4585970244407056 -3.3892480133968736 -2.560102595003228 255 0 0
1.4585970244407056 -3.3892480133968736 -2.560102595003228 255 0 0
1.4585970244407056 -3.3892480133968736 -2.560102595003228 255 0 0
-0.34206795816662433 -7.561723847197088 -7.05932515489216 255 0 0
1.7364417737757385 -2.8026893792274072 -1.96967216342746 255 0 0
-0.091635907167403 2.981352682918365 5.764101650706855 255 0 0
-0.4531628773687685 -7.517605144617419 -7.499673667401156 255 0 0
-1.701648614596237 1.4103834859908775 4.283372495759743 255 0 0
2.7626164307820824 -0.39761424129810685 -0.3785203352627058 255 0 0
-0.39670585967722394 -6.950837980065309 -7.548146347107286 255 0 0
-0.39670585967722394 -6.950837980065309 -7.548146347107286 255 0 0
-0.39670585967722394 -6.950837980065309 -7.548146347107286 255 0 0
-0.35626660713612374 -6.44576910313457 -7.324759064952356 255 0 0
-0.5682687133519885 3.4578433560577513 4.561867455096766 255 0 0
2.606239489966567 0.5883163262291436 -0.8074630306713461 255 0 0
2.606239489966567 0.5883163262291436 -0.8074630306713461 255 0 0
-0.9668218218480056 -6.949781435969857 -8.97819036157104 255 0 0
-0.5627598561691171 -5.991479947761478 -8.183841842042012 255 0 0
-0.6982466725666383 -6.272799278260221 -8.498478008121046 255 0 0
-0.8018121411083088 -6.440062985016876 -8.740211706509728 255 0 0
-0.8018121411083088 -6.440062985016876 -8.740211706509728 255 0 0
-0.9700274435667661 -6.817436646199841 -9.174930200030945 255 0 0
-1.1718868101758138 -7.2263535060967055 -9.63551180715959 255 0 0
2.7241530200872615 1.2100289922222964 -0.6977793699364696 255 0 0
2.471855425363237 0.6728699597858766 -1.2917135617439506 255 0 0
-1.0032323118159137 -6.7616781947510916 -9.326073952296657 255 0 0
-0.921534383475039 -6.536066322997736 -9.111294185529871 255 0 0
-0.5237365084604225 -5.687571450523161 -8.370622596409467 255 0 0
2.560154185074724 1.2978379742182506 -1.233094884238632 255 0 0
-1.0845262072213742 -6.367198998188963 -9.672632404525991 255 0 0
-0.6656412063863965 -5.319321900807597 -8.772007962104526 255 0 0
-0.6656412063863965 -5.319321900807597 -8.772007962104526 255 0 0
-0.16183059961324717 -5.826448235360937 -8.919358124679732 255 0 0
-0.9555339090240031 -5.8238533367867245 -9.393554292347073 255 0 0
-1.1241347197625358 -6.246718322225379 -9.889657499599595 255 0 0
-1.0209069209759398 -5.9309519491222344 -9.8196808044797 255 0 0
-1.1925227972127714 -6.1755667156564 -10.096768660085809 255 0 0
-1.0092086441269816 -5.462789690912868 -10.094684195885518 255 0 0
2.269546834067918 2.088253544546424 -2.0058687558185584 255 0 0
-0.8359609998137955 -4.857009895210908 -9.536503141029218 255 0 0
-0.6963617735173686 -4.360372594688853 -9.011225062247222 255 0 0
2.344724601520415 2.4514394052464037 -2.5246195810402843 255 0 0
1.098488927343318 0.0506064966543535 -5.315907734506769 255 0 0
1.1948690622266729 0.8227457014967814 -5.417172082474486 255 0 0
-0.9940454392277918 -3.659586455533158 -10.490719644789744 255 0 0
1.052958155969598 0.7711862115008109 -5.8073121303498665 255 0 0
-0.3614808084536765 -1.7341477010418676 -9.296790390454424 255 0 0
-1.208735180492538 -3.8419671901045556 -11.58431860433655 255 0 0
1.1473839180949517 1.5332827616035445 -5.930914682718931 255 0 0
1.013575557282232 1.4714484366564808 -6.28163562345334 255 0 0
1.5477491863662063 2.6964573232161375 -5.189935745435889 255 0 0
1.413183538132613 2.5314340429722813 -5.54404385215575 255 0 0
4.085466598563181 2.4271578638618254 -6.554995577500037 255 0 0
1.1551426297246485 2.2304572874138393 -6.335750312629909 255 0 0
1.3921681087664661 2.781539564777956 -5.762573061640083 255 0 0
1.249742682145516 2.5741275319968766 -6.082736957885332 255 0 0
1.0026786505862109 2.1473362620862515 -6.731271567812643 255 0 0
1.2609923862051278 2.841343334581826 -6.284663047034141 255 0 0
1.2609923862051278 2.841343334581826 -6.284663047034141 255 0 0
1.3698373684672829 3.1734761905159146 -5.99621113900505 255 0 0
1.4981451361512776 3.3929682160062584 -5.7546103734765595 255 0 0
-0.3503831162952637 -0.7010712476785711 -10.361624433722708 255 0 0
1.1060130732166464 2.9170465378339956 -6.859550992025552 255 0 0
0.5382274671474061 10.456865526126203 2.9368122262722265 255 0 0
0.5335404331001811 10.457576722401791 2.9352910859936125 255 0 0
0.4603283251840454 10.153216699310725 2.4811659008161984 255 0 0
0.9681634596520164 2.8411916156241026 -7.217374371893297 255 0 0
0.32470203467428144 9.941224697192213 2.1898738705031517 255 0 0
0.41954634458783674 9.557704435958948 1.6479681632054877 255 0 0
1.4239072461652977 4.080799314877856 -6.330978792394364 255 0 0
0.43089763162725214 10.626064739865098 2.5095973251370527 255 0 0
1.058374899533971 3.3680253336117274 -7.211835521381152 255 0 0
-0.3461216899469608 9.214552198569308 0.8256842333475565 255 0 0
-1.2562666811418048 -1.6255776061619476 -12.909292700178314 255 0 0
1.4723242425968615 4.528512484265795 -6.396261062808578 255 0 0
-0.7948134604837344 8.837821302862974 0.24056094241855536 255 0 0
1.0609573697965837 3.6409997616679184 -7.390818754931288 255 0 0
1.2773678799054276 4.171552511471163 -6.892471491788417 255 0 0
0.9452701254653627 3.511539171220961 -7.678165005363853 255 0 0
0.5556506194088545 11.454343476560883 2.5109078309167385 255 0 0
-1.204030440211504 -1.200469191930474 -12.933618639330309 255 0 0
-1.204030440211504 -1.200469191930474 -12.933618639330309 255 0 0
-0.29032080825409107 9.894237012678927 0.8562009540902168 255 0 0
0.2318310786341487 10.741511694596488 1.5460926350150335 255 0 0
-1.2818496643782584 -1.2260260242578955 -13.17408885822067 255 0 0
0.3168686014832428 11.507137451355241 2.4348929245184383 255 0 0
-1.1467771202393602 -0.766415797975106 -12.663989419806718 255 0 0
-0.2686202805366543 10.12039788801317 0.9313104573450632 255 0 0
-0.2686202805366543 10.12039788801317 0.9313104573450632 255 0 0
-0.3291134191090194 9.940255993048718 0.685587426012948 255 0 0
0.9265426818896408 3.805791107422801 -7.880226215722578 255 0 0
1.4458838410686154 5.175064970142474 -6.81554773622287 255 0 0
2.0199691454519493 6.583456979988184 -5.409279772516584 255 0 0
-0.6602514449045419 9.518625540918512 -0.3088858063031185 255 0 0
-0.660825759969139 9.517691209260926 -0.3101883528095689 255 0 0
1.322114661665428 4.7733994623477605 -7.332936054784677 255 0 0
-0.7505390955063704 8.942453212622251 -0.9843847281237348 255 0 0
0.9334963898079006 4.145530254392402 -8.029646566727925 255 0 0
1.2990297678435843 4.953249443538614 -7.147735325582039 255 0 0
-0.5976939628431313 9.467673453226263 -0.6121053741455951 255 0 0
-0.5976939628431313 9.467673453226263 -0.6121053741455951 255 0 0
-1.3055896397608484 -0.6007718125197292 -13.316396310370587 255 0 0
-0.823997956311553 9.036797712953735 -1.1240314458775864 255 0 0
-0.4454260960268817 10.02085992666165 -0.10947216550270836 255 0 0
-0.8382069740221751 0.5025944342560587 -12.287946764578525 255 0 0
-0.963527381804655 8.985126554943745 -1.4739668764589495 255 0 0
-1.3634021149903972 -0.5210113918150273 -13.60951581735362 255 0 0
-1.033064823306243 8.6634858969975 -1.9160874904350107 255 0 0
-1.463124219531683 -0.709275425222306 -13.856180724418046 255 0 0
-0.8817296876833002 0.5179668764812008 -12.645855527512692 255 0 0
0.5905380716695015 12.074248531606345 1.3906883658393894 255 0 0
-0.7398136909840306 9.928334631611394 -0.7479047116752353 255 0 0
-1.3848150873180387 8.501058087759043 -2.2649766208995934 255 0 0
-0.7897203644859235 0.9520455841873657 -12.644665546387163 255 0 0
-0.8887768808718384 9.741514367668723 -1.2533611553261055 255 0 0
-0.8887768808718384 9.741514367668723 -1.2533611553261055 255 0 0
-1.5261745759742653 8.408428616770381 -2.6814799149398207 255 0 0
-1.5261745759742653 8.408428616770381 -2.6814799149398207 255 0 0
-0.7898092525823168 10.129884243989661 -1.054888288678742 255 0 0
-0.8778938271137824 9.9665691378733 -1.2503228474462456 255 0 0
-1.3828099537965206 9.07634367093051 -2.2076370165589636 255 0 0
-0.2542333589072807 11.67742150117572 0.2403735452203375 255 0 0
-1.266672384295069 8.952735548927885 -2.9058739010411805 255 0 0
-1.081673143847974 0.9601707431199099 -13.510167753184355 255 0 0
-1.0481725161283633 10.543412697022548 -1.407459018182748 255 0 0
-0.6367730668415574 11.002484082787396 -1.2698514680496313 255 0 0
-1.1877037645324653 10.390637508553857 -1.864866482808384 255 0 0
-0.3624098437711224 11.589127199654701 -0.7521348082336414 255 0 0
1.4541756067478437 7.017772125825492 -7.614121277012415 255 0 0
0.5261897785217674 13.116893708498447 0.763351948336594 255 0 0
-1.1891309596445354 10.493739702198951 -1.8726063386651377 255 0 0
-1.3436586660800047 10.16904913191588 -2.266669413892761 255 0 0
-0.8705200545639638 2.1733883033507877 -13.156566397979375 255 0 0
1.3099050177696216 7.27103387421012 -8.194368423147688 255 0 0
1.5416462141844187 7.765370263271092 -7.689067494336913 255 0 0
-1.5429868361258738 9.803621590424042 -3.4999758641725998 255 0 0
-0.3520049503487203 12.047471859450642 -1.2321979583294391 255 0 0
-0.5275897375383193 3.3831768932007797 -12.463843635908896 255 0 0
-1.044547607430466 2.356030708165065 -13.595842412542286 255 0 0
0.6029149463489168 13.312365935215363 -0.2653276185472512 255 0 0
-1.2720953100689771 10.947270474957365 -2.427734425772265 255 0 0
0.6349876874912822 13.677323523053238 0.1413567455744683 255 0 0
-0.1234715308477812 12.19274664131281 -1.4270946339851809 255 0 0
0.035072020615707966 12.965471183500036 -0.6836114150881951 255 0 0
-0.25724123647267133 12.072395913074848 -1.6866034199014497 255 0 0
-0.9589490017329196 2.698694714432175 -13.554939857713382 255 0 0
-1.5192359278739365 10.228523558110536 -3.7374107584345557 255 0 0
-0.865391331892513 3.0282467521643235 -13.423073648551698 255 0 0
1.5372075894689263 8.116772271874398 -8.17006773612886 255 0 0
-1.5296382988335167 10.405299883848919 -3.6385556655424245 255 0 0
1.3279364450553006 7.88197638988191 -8.39923630762646 255 0 0
-1.4557906848513986 1.919982601019611 -14.814423517968281 255 0 0
-1.0828597399991942 2.965944901443293 -14.036493911431132 255 0 0
-1.2094374293441954 11.314233757733511 -3.4407150243613027 255 0 0
-1.0863008983946467 3.6441883037784195 -14.422051665719605 255 0 0
-0.6170483779842102 4.7282411672199505 -13.48960893486071 255 0 0
-1.168172142191962 3.5296454849171184 -14.77503127547096 255 0 0
1.560752896957978 9.556376644507848 -8.512252167283098 255 0 0
