ply
format ascii 1.0
comment written by Dennis Cheung
element vertex 291
property float32 x
property float32 y
property float32 z
property uchar red
property uchar green
property uchar blue
end_header
16.913636040479513 -1.55429308758965 3.1866773496567715 255 0 0
0.7836333652331063 -7.329643780821241 2.222240854431055 255 0 0
0.7790629300152889 -7.136650342481365 1.8700132302520984 255 0 0
1.6888155631054143 -4.541536138122784 3.9596222449304297 255 0 0
1.0458474518397698 -5.014633777076618 3.1434219893281736 255 0 0
0.8024940594283752 -6.326371175684522 1.978036136161262 255 0 0
0.7787216182260708 -6.64584327522846 1.5776145563391777 255 0 0
-0.35641040335098223 -0.7818208505411406 6.672600872281323 255 0 0
-0.6712804864452595 -1.6048659046070455 5.989981582344594 255 0 0
-0.6712804864452595 -1.6048659046070455 5.989981582344594 255 0 0
-0.4486851969860444 -1.074594995468367 6.386019898739744 255 0 0
-0.4595885022718475 -0.9938960320452684 6.277642961748973 255 0 0
1.2618789693429504 -3.445162045097451 3.0574254749605037 255 0 0
-0.4182838944531977 -0.7988606560957069 6.366761313600073 255 0 0
0.007089254294490213 -0.3230230790031389 6.511775231646142 255 0 0
9.267159857566806 0.6260320756529115 -1.563134391158912 255 0 0
-0.6032575430961837 -1.9393935308431411 5.08333803264995 255 0 0
-0.5202266561039187 -1.2615695094646457 5.685006144396033 255 0 0
-0.476202010233938 -1.2476406755205303 5.682343140599649 255 0 0
-0.645446952125707 -1.9877812242999238 4.910115633431846 255 0 0
0.020040402173552303 0.27026163346060733 6.76353274434257 255 0 0
-0.9089599523784619 -2.278642733126181 4.639314706610681 255 0 0
-0.4387083179047276 -0.8652204924096819 5.469608872862693 255 0 0
-0.44840290325713067 -0.923676005570179 5.361817843380838 255 0 0
-0.021944055540196076 0.5744131286944918 6.6183299403398745 255 0 0
-0.3584381576926135 -7.828238580329712 -1.4622123231839876 255 0 0
-0.608869167208215 -1.1288805372043944 5.170506752724844 255 0 0
-0.608869167208215 -1.1288805372043944 5.170506752724844 255 0 0
0.2647217056829845 -4.867951305968878 1.0339529987115004 255 0 0
-0.17854537751480407 0.012670815248732275 5.939091597977837 255 0 0
-0.6796509286197896 -1.3248348584903906 4.845920850281597 255 0 0
-0.6782269433896349 -1.2299903841653363 4.92958167158808 255 0 0
-0.09655330300815448 0.3688434089338752 6.2116639862378955 255 0 0
-0.4300982248133722 -0.5921902358077817 5.396665483741249 255 0 0
0.4905032333394289 -4.608480756355804 1.0474858878485898 255 0 0
-0.5938260785455356 -0.915150201745064 5.094335641186996 255 0 0
-0.6116659602940642 -0.9083248076005555 5.091657990077886 255 0 0
-0.16767310705583208 0.20226225494011033 5.948532267360176 255 0 0
-0.188505049899755 0.11873894946355795 5.848510427426948 255 0 0
-0.47197638931680497 -0.5846908425534086 5.27600058484807 255 0 0
-0.30926558908225726 -0.18480589366852332 5.5926730851057505 255 0 0
-0.5660301288166005 -0.769842047449195 5.136803899673139 255 0 0
-0.6160636084840381 -0.9091059826492848 4.984062330747599 255 0 0
-0.38785693064502674 -0.32491646689978115 5.449743747177457 255 0 0
-0.8153581255155345 -1.2956699769677098 4.643926818761967 255 0 0
0.7029347630831553 -3.7721209515559675 1.5228828589032621 255 0 0
-0.6522742769960753 -0.8876427603389647 4.885304471243458 255 0 0
-0.893631989608941 -1.5383296799993742 4.340685182322117 255 0 0
-0.893631989608941 -1.5383296799993742 4.340685182322117 255 0 0
0.5901666001673697 -4.0731506027281945 1.1612760021049198 255 0 0
-0.8501902620193672 -1.2618728590445385 4.507405399564628 255 0 0
-0.10524245994657977 0.6399210290329117 5.9753067727770395 255 0 0
-0.27854315395562584 -6.939979033875088 -1.382261850243985 255 0 0
-0.9198975842359077 -1.5267371134356036 4.189688325062486 255 0 0
-0.8199607757978498 -1.0817311568489738 4.560891962101905 255 0 0
-0.10773792030869002 0.666064912170126 5.928501882777561 255 0 0
-0.39968112913473397 0.0046234348461198825 5.390363604760156 255 0 0
-0.39968112913473397 0.0046234348461198825 5.390363604760156 255 0 0
-0.15229881156837227 0.5805770179299169 5.82322245871193 255 0 0
-0.591924324473972 -0.5072195771983253 4.9513808292792545 255 0 0
-0.19932229517323183 0.5046953559348464 5.71601247586603 255 0 0
0.5303055124704099 -4.082410194203863 0.884085556060829 255 0 0
0.5303055124704099 -4.082410194203863 0.884085556060829 255 0 0
-0.47010140511276965 -0.14693326776142554 5.164210636649253 255 0 0
0.6526424038144576 -3.666377781075974 1.1741306036306456 255 0 0
-0.2971094699510439 -6.934514474401805 -1.5759177602732788 255 0 0
0.4807226521349048 -4.196667994289258 0.720907835637198 255 0 0
-0.9013352834115447 -1.259420636383428 4.138508930372255 255 0 0
-0.24024805117684872 0.5074172078804083 5.532591051448233 255 0 0
-0.24024805117684872 0.5074172078804083 5.532591051448233 255 0 0
0.7465746514175955 -3.2553100718286605 1.3801992311725435 255 0 0
-0.4483030418321319 0.11833558354560522 5.1781568163483245 255 0 0
-0.7938772932867939 -0.8796556217879663 4.348497909013052 255 0 0
0.6802400768886716 -3.434198328849191 1.1708812000996482 255 0 0
-0.6024997503768575 -0.23331857811155235 4.843012001571451 255 0 0
-0.21156156773055484 0.7436971011603496 5.6178087020445275 255 0 0
-0.8267723865264065 -0.7361288871695557 4.374848207018632 255 0 0
-0.9422813224397462 -1.3531612647124698 3.8029835358550357 255 0 0
-0.3857759035365885 0.4021105215093835 5.2252334560551095 255 0 0
-0.18077267327759367 0.9095778421850592 5.567925413278792 255 0 0
-0.9118319081437197 -0.9591024811379436 4.013105458700639 255 0 0
-0.8596906844547275 -0.7234454312110445 4.184622560516347 255 0 0
1.128667897581714 -2.995495350128191 0.7573674170072304 255 0 0
1.128667897581714 -2.995495350128191 0.7573674170072304 255 0 0
0.5286517943007104 -3.6767114160237973 0.5898381942644884 255 0 0
0.5286517943007104 -3.6767114160237973 0.5898381942644884 255 0 0
0.06964603504244139 1.433193656173872 5.780572800309057 255 0 0
-0.33647903831888765 -6.603377666713657 -1.879239279532079 255 0 0
-0.33647903831888765 -6.603377666713657 -1.879239279532079 255 0 0
-0.41016710631182235 0.42059481638820534 4.995408751461457 255 0 0
-0.6022106806393316 -0.044145437961374163 4.623259692883043 255 0 0
-0.0854862812640979 1.2535155705425682 5.552014097413118 255 0 0
-0.16026681883763425 1.139108711459023 5.373490191949173 255 0 0
-0.07710986430601939 1.3124538687841585 5.4661501910054255 255 0 0
-0.8599433601561259 -0.7465398776232905 3.821831032923912 255 0 0
0.730121895501293 -2.851576887326941 1.0258018528882316 255 0 0
-0.7781397482254172 -0.35754274256602286 4.119559044070068 255 0 0
-0.4890518392084001 -6.897318628651681 -2.4246180722804342 255 0 0
-0.30110565680876145 -6.24370779099739 -1.9020495583653485 255 0 0
-0.8090944801835317 -0.46966579665534325 3.9522198853229695 255 0 0
-0.7932386900661387 -0.35144739067783687 4.031707510800111 255 0 0
-0.4524492821596082 0.4645776305079234 4.652909316316278 255 0 0
-0.21382027380154536 1.08996623546928 5.095823485038548 255 0 0
-0.8726496562614545 -0.946133168828959 3.4026858668036333 255 0 0
-0.429686524323639 -6.574775931990466 -2.3501583481754205 255 0 0
-0.33540152683731084 -6.247641217121435 -2.1065162455894164 255 0 0
-0.4364499643637029 0.48755853017007955 4.505769856774434 255 0 0
-0.5411319484335917 0.16548017660166053 4.234495245872167 255 0 0
-0.7853053064971275 -0.4496051375585084 3.728924417177582 255 0 0
0.6494908697775353 -2.8478027652882956 0.6558545186621333 255 0 0
0.6494908697775353 -2.8478027652882956 0.6558545186621333 255 0 0
-0.023082315385592966 1.658000735145987 5.351212806301547 255 0 0
-0.023082315385592966 1.658000735145987 5.351212806301547 255 0 0
-0.0711122244602449 1.6576413259446436 5.3583614188682 255 0 0
-0.0711122244602449 1.6576413259446436 5.3583614188682 255 0 0
0.047678503712005056 -4.819222351715214 -1.032225033852631 255 0 0
-0.10751413609337286 1.4419056620975728 5.147356028146024 255 0 0
0.5151847762414127 -3.2554467903628135 0.2384113579669529 255 0 0
-0.36763394643219305 -6.240318447913952 -2.2612174670694203 255 0 0
-0.5256621158341017 -6.754289286863927 -2.742783265610395 255 0 0
-0.06553106471292154 1.6726569586122684 5.214134795519042 255 0 0
-0.1561865790622894 1.3719638329748103 4.9608347151914565 255 0 0
-0.0357724943477113 1.7466453882962225 5.254334293785376 255 0 0
-0.18737172167241115 1.1811892669686799 4.757264095515657 255 0 0
-0.5268130093059881 0.19464928789373584 3.9414894851164424 255 0 0
-0.49790252935947904 0.29299008302656376 4.018687275199762 255 0 0
-0.5843295051369167 -6.8501317237521535 -2.9187443581680097 255 0 0
-0.6161050791617129 -0.055342524341369354 3.7266756021303 255 0 0
0.05155968106222723 2.204110171025184 5.49276806799871 255 0 0
-0.07624322997739048 1.6665309590653552 5.020748951493912 255 0 0
-0.43626095938440357 0.5015636546721766 4.047568625164214 255 0 0
-0.4416439648968829 -6.274368712745621 -2.6193403802498882 255 0 0
-0.8493862667899784 -0.5614952865941766 3.1385844871063755 255 0 0
-0.1372839408696719 1.5186884917172534 4.603955796320628 255 0 0
-0.01471275002480747 2.0361706181889105 5.024411485757353 255 0 0
0.5147063473906375 -2.84972957342974 -0.06085444773588588 255 0 0
-0.2715521590927488 -5.590714965433056 -2.4393741813687315 255 0 0
-0.3725375418281782 0.24720916891151495 3.275363340948423 255 0 0
0.44952432834863576 -2.9474340994655677 -0.2704246162650253 255 0 0
-0.3886219536192952 -5.831590970998263 -2.698656277012149 255 0 0
0.07465657923700669 2.5482810209252875 5.164898170096061 255 0 0
0.718402850378433 -2.5758356265401434 -0.29930398657189417 255 0 0
0.718402850378433 -2.5758356265401434 -0.29930398657189417 255 0 0
0.4482135628646812 -2.534957991073393 -0.5907914424211409 255 0 0
8.946622253225238 2.6917071464769857 1.379742191972657 255 0 0
0.7032407523228108 -1.6330796635120393 0.059496682132631235 255 0 0
-0.29480869647220453 -4.920194420434775 -2.8650569156010097 255 0 0
0.5039445806524894 -2.02819663978326 -0.6843725306767809 255 0 0
0.9726539826338898 -0.47122008405929605 0.6095588802580674 255 0 0
0.6299564775967706 -1.628244550417639 -0.3714487486408658 255 0 0
0.561284418458628 -1.7515763571353626 -0.5765531642444199 255 0 0
0.6894032524178824 -1.3541076211684675 -0.2500163341942566 255 0 0
0.4507495443848525 -2.127788065988359 -0.9058100791149325 255 0 0
-0.34697398886388797 -4.886897082835632 -3.358440729949728 255 0 0
1.061252045599682 -0.13046610687227053 0.4647486014604202 255 0 0
-0.3222750284372357 -4.549089336951899 -3.4173400812779287 255 0 0
-0.3014942687805427 -4.223286093479106 -3.3176230341302317 255 0 0
1.0400627248538434 0.5106966788560544 0.13493997309601777 255 0 0
-0.6056815397299906 -4.765093122070857 -4.345115791118092 255 0 0
-0.4957344334279596 -4.322586181298836 -4.140670863330198 255 0 0
-0.5687623082535161 -4.585632175536024 -4.3742418487423755 255 0 0
1.0903959145978934 0.8952880472447559 0.16554537220903817 255 0 0
-0.8607299173702365 -4.578131530629762 -4.693558861220288 255 0 0
-0.5796158222251819 -4.561920823562295 -4.4640924334552174 255 0 0
-0.5450031189784754 -4.412394025061901 -4.355764110451389 255 0 0
1.027728741851931 0.9076201300492032 -0.15154104376583188 255 0 0
-0.6146232343230421 -4.349727732522913 -4.6876251705867595 255 0 0
-0.42811402615133526 -3.647721063049907 -4.214119691347388 255 0 0
-0.5839497243938517 -4.1526267798579 -4.646131786035128 255 0 0
-0.5588583762178654 -4.001370243644607 -4.551093256131156 255 0 0
-0.6345840335737597 -4.295976117697565 -4.821644266604604 255 0 0
-0.6727212995739863 -4.424567018720481 -4.936493472472842 255 0 0
-0.581944069366275 -4.095596474193331 -4.794932995975126 255 0 0
-0.6640766507623609 -4.264476547601775 -4.946120842830517 255 0 0
0.9186869856803502 1.3252118478210022 -0.6249689012300966 255 0 0
-0.496433460703165 -3.427115036181544 -4.6862666827998885 255 0 0
0.6356743806347098 0.600641136630619 -1.7575942786091123 255 0 0
0.37953364470922696 -0.1449032013199762 -2.4719000463810383 255 0 0
0.43010183646091077 0.3150148826226611 -2.569163990018376 255 0 0
0.5312716149006778 0.7364582511881865 -2.351761593460244 255 0 0
-0.604566871189042 -3.256840845374074 -5.765883640179019 255 0 0
0.36859070376181774 0.25576770779002655 -2.7963288014377494 255 0 0
-0.3098357051432657 -1.7697051113894275 -4.793464847021986 255 0 0
-0.2606862574928554 -1.5165488243008234 -4.706415068811094 255 0 0
-0.6483039375125245 -2.959071531750565 -5.933981155928204 255 0 0
0.4154736005677013 0.7089310567569845 -2.906887974974623 255 0 0
0.4154736005677013 0.7089310567569845 -2.906887974974623 255 0 0
0.3574972926251771 0.6444395498623892 -3.1091827131786745 255 0 0
0.5991163768009923 1.4659438186264058 -2.535405570035036 255 0 0
0.4231327174724355 0.9665013454475749 -3.050434730754954 255 0 0
0.5368554355620346 1.3429456658558938 -2.7329607050372484 255 0 0
-0.6397879459990679 -2.666085487106807 -6.110639020668757 255 0 0
0.4245803080398283 1.0999835443942807 -3.178597203982973 255 0 0
0.5295027470565219 1.477792052337144 -2.873122541874825 255 0 0
0.4725063823349699 1.3279356911906552 -3.0485822391290935 255 0 0
0.4725063823349699 1.3279356911906552 -3.0485822391290935 255 0 0
0.359833958230161 1.0209841561818842 -3.4061614115277066 255 0 0
0.4781451461171508 1.4735345683721475 -3.18280373611818 255 0 0
0.4781451461171508 1.4735345683721475 -3.18280373611818 255 0 0
0.4108205882665019 1.3344107364728275 -3.33585499207111 255 0 0
0.5747614496778951 1.8484692199028607 -2.900845495411452 255 0 0
0.5336481848744291 1.8378747077659559 -3.174992587911034 255 0 0
0.4074132534159431 1.4783593953383978 -3.5225006526596765 255 0 0
0.5855849671430285 2.1324447440951766 -3.0172192404122926 255 0 0
0.5855849671430285 2.1324447440951766 -3.0172192404122926 255 0 0
0.04791587336926984 6.545591704544765 1.562881764300821 255 0 0
0.34695531892305803 1.4056459183149195 -3.7260276046502874 255 0 0
-0.013609091203577164 6.395345894541914 1.4036109659588436 255 0 0
0.5537004939091048 2.220595182514445 -3.271328918029917 255 0 0
0.4892814287582501 2.059638834968436 -3.4647412109194593 255 0 0
0.39263300594495704 1.7268034619134964 -3.7500478714487278 255 0 0
-0.6158697749201272 -1.7035011939736073 -6.623413520328487 255 0 0
-0.47303417038590456 -1.329928701446121 -6.363810831729792 255 0 0
-0.31585829126337517 5.856008292964595 0.6438557365207281 255 0 0
-0.6502978033402358 -1.7147242956948037 -6.8243643615190805 255 0 0
0.5837068557190471 2.488418310271263 -3.332555449870326 255 0 0
0.49382512920922933 2.233768118081487 -3.6041871608048845 255 0 0
-0.2950183742567343 6.116522549090931 0.657398052715544 255 0 0
0.3452617646122777 1.7787153158996099 -4.030789185679196 255 0 0
0.07143796897475521 7.207987759089561 1.465559609081389 255 0 0
-0.6155840004527965 -1.4594250003350118 -6.852916764214816 255 0 0
-0.6155840004527965 -1.4594250003350118 -6.852916764214816 255 0 0
-0.2856405219655264 6.270436807773414 0.6248920104623655 255 0 0
-0.6603123729079539 -1.492531610999659 -6.996381904124441 255 0 0
-0.5842656722138202 -1.1813652142460505 -6.7369920672406005 255 0 0
-0.5944870193515106 -1.1838663211061216 -6.743850301079241 255 0 0
0.3426404316478386 1.9443419811586535 -4.159598744081195 255 0 0
-0.32342193127716135 6.109088685202458 0.34026216102483847 255 0 0
0.022056141546610442 7.100055265969496 1.0843009610229322 255 0 0
0.5759077222768776 2.8489079537213526 -3.6116218617690885 255 0 0
0.8920752871397277 3.781681482565518 -2.860528128952718 255 0 0
0.46359840139344083 2.497711158484641 -3.932071427314466 255 0 0
-0.47151837376288314 5.5594532151259415 -0.3995264168144616 255 0 0
0.34479599303052383 2.137367709637306 -4.268354887825998 255 0 0
-0.6642289050740168 -1.1237795832457567 -7.112441243757881 255 0 0
-0.5743150026556495 5.548605308348401 -0.6887517863017433 255 0 0
-0.5743150026556495 5.548605308348401 -0.6887517863017433 255 0 0
-0.6912006551704325 -1.0987325377557355 -7.289697876988298 255 0 0
-0.6119673356884453 5.321189926665844 -0.9293428302479798 255 0 0
0.4353613994523361 2.5472442990167226 -4.2827839640676055 255 0 0
-0.7342812331730494 -1.227369651300747 -7.423094925715002 255 0 0
0.3424062432269267 2.2854770396789132 -4.527559746624081 255 0 0
-0.4695441008367747 -0.3983155491422558 -6.780468839680421 255 0 0
0.11573852546290374 7.620283660033739 0.8284381054168398 255 0 0
0.9434183993386845 4.524032804415065 -2.847872375599231 255 0 0
-0.4822311301030255 6.26382483816826 -0.3587336510945824 255 0 0
-0.6291820041505581 -0.8101213175740929 -7.4929000005623125 255 0 0
-0.25527840345735164 7.292270638241086 0.381984423931227 255 0 0
-0.7686589049602015 5.542734143675958 -1.1253010271863202 255 0 0
-0.6927479783679832 5.7969290098444 -1.0010664684993857 255 0 0
-0.4568244639920205 0.21396699853616072 -6.731196099592441 255 0 0
-0.5324830031919747 6.381295343074002 -0.5732665361604918 255 0 0
0.8887178456481695 4.782419987015994 -2.9524558047178786 255 0 0
-0.5038168157492322 6.439855525649398 -0.5710934473823418 255 0 0
-0.08954969288641094 7.65320767299584 0.15100930056073542 255 0 0
-0.6081044298616626 6.519443947528088 -0.7287369240405013 255 0 0
0.8095713476645306 4.599260021181104 -3.440565574346955 255 0 0
0.8095713476645306 4.599260021181104 -3.440565574346955 255 0 0
-0.42608669994044274 6.774152965799063 -0.6833421011063253 255 0 0
-0.3070738656121851 7.178450486255824 -0.3999618945436552 255 0 0
-0.6714834582137614 6.538885884343074 -0.9230934958785098 255 0 0
-0.7480685451075645 6.20382232650238 -1.2162514645145652 255 0 0
-0.45660831200401075 0.5700199132427134 -7.163183012320949 255 0 0
-0.6121742744578612 6.7928467244001 -0.8623533692377715 255 0 0
0.5332666862117684 4.017469380798917 -4.524751382216388 255 0 0
0.10960856463856071 8.2260930649123 -0.09348274272137735 255 0 0
-0.8239854752277328 5.896597227394556 -1.9155230984549165 255 0 0
-0.7269337005697153 6.597971823254035 -1.282237498182163 255 0 0
-0.43460576045293814 0.8953489472424567 -7.178244941503276 255 0 0
-0.29825967834954187 1.351364090394734 -6.820350120957157 255 0 0
-0.5220963941728023 0.6448628818802233 -7.4280867819856065 255 0 0
0.14369821150812678 8.508256687106872 0.016097576821461464 255 0 0
-0.24472518973909074 7.40076675482671 -0.9728500161632051 255 0 0
-0.48887005656532506 0.8545659162125192 -7.421336536476667 255 0 0
-0.8064306186295002 6.135586446173528 -2.075665629841945 255 0 0
-0.44669826906715643 1.0658718551493762 -7.362663622280794 255 0 0
0.5526610258942648 4.373077675153722 -4.677193702382919 255 0 0
0.596065770855345 4.535420731511664 -4.5577890518453605 255 0 0
-0.8390464116044924 6.44232765205208 -1.998868466560713 255 0 0
-0.5351737419038192 0.9837701074399536 -7.718120887462089 255 0 0
-1.179924456211903 6.556924395159983 -1.7134881133367408 255 0 0
-0.640868788015992 6.821333058007875 -1.972753369921235 255 0 0
0.5381273106253242 4.718343432687774 -4.946711862989146 255 0 0
-0.7411102007342705 0.5801973318729282 -8.463378608878509 255 0 0
-0.5614494660666725 1.1937429747019086 -7.981372707457879 255 0 0
-0.5001108905240306 1.4754880343646348 -7.8690659296719865 255 0 0
-0.5385784698928939 1.3658474585031486 -7.977690988021987 255 0 0
-0.3206130620456146 2.091453619153228 -7.489153679955676 255 0 0
-0.5758324078403676 1.2718168314809974 -8.178623304942697 255 0 0
0.6611069469149526 5.3787178150212585 -4.827767296367819 255 0 0
-0.5107619849669562 1.5492579795205388 -8.011287569345862 255 0 0
